ply
format ascii 1.0
comment Created by Open3D
element vertex 3057
property double x
property double y
property double z
end_header
93 156 4.24659
94 156 4.56861
95 156 4.83748
96 156 5.02581
97 156 5.11042
98 156 5.08164
99 156 4.98022
100 156 4.72422
101 156 4.09873
102 156 4.61376
103 156 5.14762
104 156 5.5662
105 156 5.85144
106 156 6.00743
107 156 6.02639
108 156 5.88445
109 156 4.57765
110 156 -19.9866
111 156 -19.9866
112 156 -19.9866
113 156 -19.9866
114 156 -19.9866
115 156 -19.9866
116 156 -19.9866
117 156 -19.9866
118 156 -19.9866
119 156 -19.9866
0 157 -19.9866
1 157 -19.9866
2 157 -19.9866
3 157 -19.9866
4 157 -19.9866
5 157 -19.9866
6 157 -19.9866
7 157 -19.9866
8 157 -19.9866
9 157 2.78407
10 157 4.69764
11 157 5.59984
12 157 6.1578
13 157 6.51726
14 157 6.60385
15 157 6.47945
16 157 6.19827
17 157 5.78682
18 157 6.04259
19 157 6.2964
20 157 6.57767
21 157 6.81379
22 157 6.96267
23 157 6.98725
24 157 6.8876
25 157 6.74853
26 157 6.68744
27 157 6.70382
28 157 6.75935
29 157 6.81306
30 157 6.83199
31 157 6.81867
32 157 6.7913
33 157 6.76316
34 157 6.71615
35 157 6.58728
36 157 6.26972
37 157 7.11638
38 157 7.61808
39 157 7.9999
40 157 8.30401
41 157 8.50625
42 157 8.58133
43 157 8.54629
44 157 8.42147
45 157 8.26254
46 157 8.319
47 157 8.49815
48 157 8.72493
49 157 8.92217
50 157 9.00798
51 157 8.94839
52 157 8.7549
53 157 8.48189
54 157 8.44219
55 157 8.47503
56 157 8.54021
57 157 8.625
58 157 8.69573
59 157 8.75138
60 157 8.78939
61 157 8.81995
62 157 8.84335
63 157 8.86506
64 157 8.9091
65 157 9.10401
66 157 9.41457
67 157 9.71564
68 157 9.9571
69 157 10.1264
70 157 10.1989
71 157 10.1915
72 157 10.1135
73 157 10.1164
74 157 10.3088
75 157 10.4911
76 157 10.6696
77 157 10.7814
78 157 10.7868
79 157 10.6582
80 157 10.3394
81 157 9.68677
82 157 9.70259
83 157 9.67893
84 157 9.66123
85 157 9.65546
86 157 9.64693
87 157 9.61285
88 157 9.55606
89 157 9.48695
90 157 9.33119
91 157 8.91139
92 157 9.31987e-10
93 157 -3.82415
94 157 -3.83879
95 157 -3.69574
96 157 -3.55632
97 157 -3.47516
98 157 -3.47531
99 157 -3.54535
100 157 -3.76004
101 157 -4.30372
102 157 -3.80143
103 157 -3.31734
104 157 -2.895
105 157 -2.59344
106 157 -2.44303
107 157 -2.40867
108 157 -2.5439
109 157 -3.98446
110 157 -19.9866
111 157 -19.9866
112 157 -19.9866
113 157 -19.9866
114 157 -19.9866
115 157 -19.9866
116 157 -19.9866
117 157 -19.9866
118 157 -19.9866
119 157 -19.9866
0 158 -19.9866
1 158 -19.9866
2 158 -19.9866
3 158 -19.9866
4 158 -19.9866
5 158 -19.9866
6 158 -19.9866
7 158 -19.9866
8 158 -19.9866
9 158 -5.51059
10 158 -3.64014
11 158 -2.97618
12 158 -2.36319
13 158 -1.9797
14 158 -1.87871
15 158 -1.99454
16 158 -2.2582
17 158 -2.72695
18 158 -2.39288
19 158 -2.06236
20 158 -1.75721
21 158 -1.5354
22 158 -1.45401
23 158 -1.50419
24 158 -1.65559
25 158 -1.83893
26 158 -1.91224
27 158 -1.88758
28 158 -1.81727
29 158 -1.74659
30 158 -1.6959
31 158 -1.67308
32 158 -1.66917
33 158 -1.65814
34 158 -1.67652
35 158 -1.7586
36 158 -2.02177
37 158 -1.18157
38 158 -0.64998
39 158 -0.21866
40 158 0.163718
41 158 0.407874
42 158 0.501918
43 158 0.475479
44 158 0.355681
45 158 0.218394
46 158 0.287937
47 158 0.496842
48 158 0.696665
49 158 0.820665
50 158 0.822295
51 158 0.701506
52 158 0.440091
53 158 0.121405
54 158 0.0159098
55 158 -0.00931478
56 158 -0.00767847
57 158 0.0154415
58 158 0.0339864
59 158 0.0463661
60 158 0.0326281
61 158 0.00884201
62 158 -0.00370593
63 158 -0.0198883
64 158 -0.00372729
65 158 0.220269
66 158 0.52595
67 158 0.823782
68 158 1.05521
69 158 1.2046
70 158 1.24287
71 158 1.18617
72 158 1.06094
73 158 1.14066
74 158 1.92204
75 158 2.44052
76 158 2.80687
77 158 3.04416
78 158 3.12167
79 158 3.03376
80 158 2.7316
81 158 2.08697
82 158 2.12174
83 158 2.1259
84 158 2.12492
85 158 2.13466
86 158 2.15112
87 158 2.14889
88 158 2.14586
89 158 2.14677
90 158 2.14579
91 158 2.17565
92 158 2.28896
93 158 2.59109
94 158 2.94907
95 158 3.27018
96 158 3.51747
97 158 3.66721
98 158 3.71618
99 158 3.65501
100 158 3.44469
101 158 2.83948
102 158 3.34035
103 158 3.93632
104 158 4.46794
105 158 4.83214
106 158 5.0067
107 158 5.01044
108 158 4.82154
109 158 3.19084
110 158 -19.9866
111 158 -19.9866
112 158 -19.9866
113 158 -19.9866
114 158 -19.9866
115 158 -19.9866
116 158 -19.9866
117 158 -19.9866
118 158 -19.9866
119 158 -19.9866
0 159 -19.9866
1 159 -19.9866
2 159 -19.9866
3 159 -19.9866
4 159 -19.9866
5 159 -19.9866
6 159 -19.9866
7 159 -19.9866
8 159 -19.9866
9 159 1.47587
10 159 3.25308
11 159 4.26672
12 159 5.04739
13 159 5.50316
14 159 5.62023
15 159 5.47822
16 159 5.14305
17 159 4.5842
18 159 4.78669
19 159 4.90631
20 159 5.04995
21 159 5.16992
22 159 5.20594
23 159 5.14759
24 159 4.99371
25 159 4.82192
26 159 4.73256
27 159 4.72061
28 159 4.74663
29 159 4.77907
30 159 4.77436
31 159 4.75541
32 159 4.71968
33 159 4.68666
34 159 4.64343
35 159 4.58073
36 159 4.47547
37 159 4.21861
38 159 4.68644
39 159 5.23622
40 159 5.66089
41 159 5.96979
42 159 6.11284
43 159 6.09011
44 159 5.93628
45 159 5.77532
46 159 5.87868
47 159 6.19802
48 159 6.58207
49 159 6.89676
50 159 7.07956
51 159 7.10083
52 159 6.93589
53 159 6.65779
54 159 6.56512
55 159 6.54291
56 159 6.54322
57 159 6.57021
58 159 6.58377
59 159 6.58738
60 159 6.58149
61 159 6.57285
62 159 6.56867
63 159 6.58078
64 159 6.6433
65 159 7.02907
66 159 7.40762
67 159 7.73949
68 159 8.00853
69 159 8.17038
70 159 8.23839
71 159 8.20158
72 159 8.09254
73 159 7.92187
74 159 7.91713
75 159 8.18863
76 159 8.55285
77 159 8.86216
78 159 9.00701
79 159 8.95789
80 159 8.66866
81 159 8.02362
82 159 8.12551
83 159 8.18018
84 159 8.24575
85 159 8.31423
86 159 8.38608
87 159 8.44533
88 159 8.50149
89 159 8.55277
90 159 8.61081
91 159 8.67699
92 159 8.7903
93 159 9.00233
94 159 9.30161
95 159 9.59448
96 159 9.83334
97 159 10.0106
98 159 10.0936
99 159 10.0887
100 159 9.94153
101 159 9.50293
102 159 9.96096
103 159 10.2047
104 159 10.4614
105 159 10.6741
106 159 10.7693
107 159 10.6967
108 159 10.4351
109 159 8.47447
110 159 -19.9866
111 159 -19.9866
112 159 -19.9866
113 159 -19.9866
114 159 -19.9866
115 159 -19.9866
116 159 -19.9866
117 159 -19.9866
118 159 -19.9866
119 159 -19.9866
0 160 -19.9866
1 160 -19.9866
2 160 -19.9866
3 160 -19.9866
4 160 -19.9866
5 160 -19.9866
6 160 -19.9866
7 160 -19.9866
8 160 -19.9866
9 160 8.46868
10 160 10.3677
11 160 10.4463
12 160 10.8292
13 160 11.1712
14 160 11.2372
15 160 11.0307
16 160 10.6139
17 160 9.90401
18 160 10.0323
19 160 10.126
20 160 10.2798
21 160 10.4576
22 160 10.5608
23 160 10.5451
24 160 10.3491
25 160 10.0584
26 160 9.99646
27 160 10.3001
28 160 -5.69028e-10
29 160 -4.78173
30 160 -4.6559
31 160 -4.64444
32 160 -4.66504
33 160 -4.71254
34 160 -4.7583
35 160 -4.83659
36 160 -4.99774
37 160 -5.39557
38 160 -4.3588
39 160 -3.64867
40 160 -3.05758
41 160 -2.65881
42 160 -2.46766
43 160 -2.46591
44 160 -2.59422
45 160 -2.75105
46 160 -2.5783
47 160 -2.14159
48 160 -1.75117
49 160 -1.46942
50 160 -1.34962
51 160 -1.42057
52 160 -1.64933
53 160 -1.98392
54 160 -2.06091
55 160 -2.07852
56 160 -2.03812
57 160 -1.99429
58 160 -1.93966
59 160 -1.90712
60 160 -1.88863
61 160 -1.86762
62 160 -1.83601
63 160 -1.78536
64 160 -1.67438
65 160 -1.26066
66 160 -0.842507
67 160 -0.462725
68 160 -0.156489
69 160 0.0500432
70 160 0.15032
71 160 0.151365
72 160 0.041263
73 160 -0.111636
74 160 -0.0976279
75 160 0.269282
76 160 0.576166
77 160 0.783661
78 160 0.827828
79 160 0.687798
80 160 0.325978
81 160 -0.353888
82 160 -0.308113
83 160 -0.315486
84 160 -0.31029
85 160 -0.29235
86 160 -0.277523
87 160 -0.276108
88 160 -0.275533
89 160 -0.270726
90 160 -0.253994
91 160 -0.22201
92 160 -0.129935
93 160 0.0905843
94 160 0.380826
95 160 0.670406
96 160 0.901165
97 160 1.05399
98 160 1.08882
99 160 1.00265
100 160 0.702705
101 160 -0.185854
102 160 1.88469
103 160 2.40027
104 160 2.78069
105 160 3.07756
106 160 3.20613
107 160 3.13076
108 160 2.86348
109 160 0.846833
110 160 -19.9866
111 160 -19.9866
112 160 -19.9866
113 160 -19.9866
114 160 -19.9866
115 160 -19.9866
116 160 -19.9866
117 160 -19.9866
118 160 -19.9866
119 160 -19.9866
0 161 -19.9866
1 161 -19.9866
2 161 -19.9866
3 161 -19.9866
4 161 -19.9866
5 161 -19.9866
6 161 -19.9866
7 161 -19.9866
8 161 -19.9866
9 161 -4.02548
10 161 3.87748
11 161 3.00817
12 161 3.3191
13 161 3.67195
14 161 3.74527
15 161 3.5405
16 161 3.12411
17 161 2.39878
18 161 2.60708
19 161 2.73871
20 161 2.91901
21 161 3.07766
22 161 3.16262
23 161 3.1445
24 161 3.07916
25 161 3.04036
26 161 3.02714
27 161 3.03801
28 161 3.06327
29 161 3.10369
30 161 3.12483
31 161 3.10355
32 161 3.07645
33 161 3.05941
34 161 3.03444
35 161 2.98993
36 161 2.90999
37 161 2.66153
38 161 3.179
39 161 3.76763
40 161 4.3634
41 161 4.79339
42 161 5.02031
43 161 5.03391
44 161 4.88651
45 161 4.67258
46 161 4.64981
47 161 4.73674
48 161 4.95112
49 161 5.14445
50 161 5.23799
51 161 5.15936
52 161 4.944
53 161 4.67899
54 161 4.58622
55 161 4.53962
56 161 4.52901
57 161 4.52597
58 161 4.52734
59 161 4.51453
60 161 4.4846
61 161 4.45901
62 161 4.43886
63 161 4.42373
64 161 4.41219
65 161 4.45855
66 161 4.71785
67 161 5.06277
68 161 5.37724
69 161 5.6133
70 161 5.72603
71 161 5.70568
72 161 5.5495
73 161 5.34966
74 161 5.33907
75 161 5.84854
76 161 6.42979
77 161 6.88058
78 161 7.13772
79 161 7.15767
80 161 6.89543
81 161 6.22159
82 161 6.24863
83 161 6.24168
84 161 6.23966
85 161 6.25144
86 161 6.27616
87 161 6.2711
88 161 6.28153
89 161 6.28601
90 161 6.3132
91 161 6.38511
92 161 6.53492
93 161 6.86857
94 161 7.23888
95 161 7.5636
96 161 7.83308
97 161 7.99901
98 161 8.07744
99 161 8.05505
100 161 7.94505
101 161 7.69211
102 161 7.09813
103 161 7.62733
104 161 8.30723
105 161 8.81383
106 161 9.06741
107 161 9.05399
108 161 8.77432
109 161 6.66194
110 161 -19.9866
111 161 -19.9866
112 161 -19.9866
113 161 -19.9866
114 161 -19.9866
115 161 -19.9866
116 161 -19.9866
117 161 -19.9866
118 161 -19.9866
119 161 -19.9866
0 162 -19.9866
1 162 -19.9866
2 162 -19.9866
3 162 -19.9866
4 162 -19.9866
5 162 -19.9866
6 162 -19.9866
7 162 -19.9866
8 162 -19.9866
9 162 -19.9866
10 162 5.58371
11 162 7.42233
12 162 8.66973
13 162 9.37709
14 162 9.57427
15 162 9.44341
16 162 9.06297
17 162 8.33223
18 162 8.43964
19 162 8.38592
20 162 8.30414
21 162 8.21742
22 162 8.09928
23 162 7.92422
24 162 7.69286
25 162 7.49829
26 162 7.33402
27 162 7.17298
28 162 7.03362
29 162 6.8887
30 162 6.72694
31 162 6.54495
32 162 6.35431
33 162 6.15429
34 162 5.93683
35 162 5.66472
36 162 5.19277
37 162 4.13906
38 162 7.39942
39 162 8.76432
40 162 9.5969
41 162 10.1219
42 162 10.4023
43 162 10.4142
44 162 10.2172
45 162 9.92117
46 162 9.83091
47 162 9.87488
48 162 10.1156
49 162 10.391
50 162 10.5863
51 162 10.6086
52 162 10.3573
53 162 9.72503
54 162 9.51508
55 162 9.44373
56 162 4.45816e-09
57 162 -4.76651
58 162 -4.82514
59 162 -4.86556
60 162 -4.90325
61 162 -4.94026
62 162 -4.96362
63 162 -4.98752
64 162 -4.98921
65 162 -4.89697
66 162 -4.40567
67 162 -3.87545
68 162 -3.41368
69 162 -3.08428
70 162 -2.90533
71 162 -2.89556
72 162 -3.01232
73 162 -3.21175
74 162 -3.14808
75 162 -2.35415
76 162 -1.77744
77 162 -1.41909
78 162 -1.26944
79 162 -1.36746
80 162 -1.74739
81 162 -2.55077
82 162 -2.41663
83 162 -2.38356
84 162 -2.35095
85 162 -2.31144
86 162 -2.26764
87 162 -2.2282
88 162 -2.19349
89 162 -2.15808
90 162 -2.08896
91 162 -1.98432
92 162 -1.79971
93 162 -1.42907
94 162 -1.03364
95 162 -0.660625
96 162 -0.362278
97 162 -0.149462
98 162 -0.0411222
99 162 -0.0329939
100 162 -0.139336
101 162 -0.384189
102 162 -0.982026
103 162 -0.06122
104 162 0.423259
105 162 0.746233
106 162 0.870082
107 162 0.734514
108 162 0.347218
109 162 -1.74052
110 162 -19.9866
111 162 -19.9866
112 162 -19.9866
113 162 -19.9866
114 162 -19.9866
115 162 -19.9866
116 162 -19.9866
117 162 -19.9866
118 162 -19.9866
119 162 -19.9866
0 163 -19.9866
1 163 -19.9866
2 163 -19.9866
3 163 -19.9866
4 163 -19.9866
5 163 -19.9866
6 163 -19.9866
7 163 -19.9866
8 163 -19.9866
9 163 -19.9866
10 163 -2.9881
11 163 0.502678
12 163 0.832429
13 163 1.18073
14 163 1.25541
15 163 1.07812
16 163 0.62221
17 163 0.0166545
18 163 0.116261
19 163 0.0876307
20 163 0.0657294
21 163 0.0927189
22 163 0.0473462
23 163 -0.14661
24 163 -0.482169
25 163 -0.702144
26 163 -0.848105
27 163 -0.970556
28 163 -1.07259
29 163 -1.16861
30 163 -1.27965
31 163 -1.41987
32 163 -1.55877
33 163 -1.70456
34 163 -1.87258
35 163 -2.09754
36 163 -2.51495
37 163 -3.51536
38 163 0.0455151
39 163 1.23801
40 163 2.0085
41 163 2.56526
42 163 2.87005
43 163 2.89484
44 163 2.71163
45 163 2.42681
46 163 2.3683
47 163 2.45739
48 163 2.75934
49 163 3.0038
50 163 3.11671
51 163 3.06493
52 163 2.88899
53 163 2.87593
54 163 2.86747
55 163 2.84864
56 163 2.85109
57 163 2.8569
58 163 2.86288
59 163 2.84822
60 163 2.83371
61 163 2.82417
62 163 2.81198
63 163 2.82046
64 163 2.85215
65 163 2.91577
66 163 3.24185
67 163 3.65908
68 163 4.09202
69 163 4.42737
70 163 4.61964
71 163 4.67523
72 163 4.60279
73 163 4.46269
74 163 4.32711
75 163 4.34048
76 163 4.75481
77 163 5.10469
78 163 5.26245
79 163 5.16533
80 163 4.78099
81 163 4.21757
82 163 4.25692
83 163 4.23481
84 163 4.21144
85 163 4.21303
86 163 4.21362
87 163 4.19715
88 163 4.17801
89 163 4.16477
90 163 4.17223
91 163 4.18393
92 163 4.22707
93 163 4.33277
94 163 4.57118
95 163 4.87248
96 163 5.16133
97 163 5.39148
98 163 5.50339
99 163 5.47928
100 163 5.31523
101 163 4.96088
102 163 4.11563
103 163 5.26824
104 163 6.23529
105 163 6.92097
106 163 7.27388
107 163 7.33047
108 163 7.10913
109 163 4.89388
110 163 -19.9866
111 163 -19.9866
112 163 -19.9866
113 163 -19.9866
114 163 -19.9866
115 163 -19.9866
116 163 -19.9866
117 163 -19.9866
118 163 -19.9866
119 163 -19.9866
0 164 -19.9866
1 164 -19.9866
2 164 -19.9866
3 164 -19.9866
4 164 -19.9866
5 164 -19.9866
6 164 -19.9866
7 164 -19.9866
8 164 -19.9866
9 164 -19.9866
10 164 1.27001
11 164 5.2668
12 164 6.68801
13 164 7.50017
14 164 7.76622
15 164 7.64413
16 164 7.1934
17 164 6.1486
18 164 6.4366
19 164 6.42478
20 164 6.29031
21 164 6.1124
22 164 5.95917
23 164 5.84738
24 164 5.83967
25 164 5.8653
26 164 5.91042
27 164 5.94677
28 164 5.9873
29 164 6.01925
30 164 6.03836
31 164 6.03573
32 164 6.0379
33 164 6.02175
34 164 6.02282
35 164 6.01194
36 164 5.97953
37 164 5.87656
38 164 5.53877
39 164 6.48937
40 164 7.49704
41 164 8.24889
42 164 8.67557
43 164 8.78341
44 164 8.64998
45 164 8.37836
46 164 8.27086
47 164 8.15467
48 164 8.08582
49 164 8.06684
50 164 7.98781
51 164 7.78488
52 164 7.46997
53 164 7.30349
54 164 7.14797
55 164 6.97332
56 164 6.80187
57 164 6.62927
58 164 6.46579
59 164 6.29035
60 164 6.11336
61 164 5.93362
62 164 5.76363
63 164 5.62876
64 164 5.56124
65 164 5.74374
66 164 7.05532
67 164 8.16486
68 164 8.98287
69 164 9.5422
70 164 9.85935
71 164 9.95299
72 164 9.86049
73 164 9.65313
74 164 9.41625
75 164 9.36279
76 164 9.85386
77 164 10.3245
78 164 10.6671
79 164 10.8259
80 164 10.612
81 164 8.85012
82 164 8.97302
83 164 8.61677
84 164 -4.06952e-10
85 164 -4.95934
86 164 -5.09604
87 164 -5.15252
88 164 -5.19343
89 164 -5.22286
90 164 -5.23255
91 164 -5.22426
92 164 -5.1616
93 164 -4.98437
94 164 -4.5683
95 164 -4.09671
96 164 -3.6653
97 164 -3.34172
98 164 -3.17743
99 164 -3.15977
100 164 -3.31496
101 164 -3.66593
102 164 -4.63761
103 164 -2.53314
104 164 -1.76077
105 164 -1.31851
106 164 -1.13031
107 164 -1.21837
108 164 -1.57713
109 164 -4.22757
110 164 -19.9866
111 164 -19.9866
112 164 -19.9866
113 164 -19.9866
114 164 -19.9866
115 164 -19.9866
116 164 -19.9866
117 164 -19.9866
118 164 -19.9866
119 164 -19.9866
0 165 -19.9866
1 165 -19.9866
2 165 -19.9866
3 165 -19.9866
4 165 -19.9866
5 165 -19.9866
6 165 -19.9866
7 165 -19.9866
8 165 -19.9866
9 165 -19.9866
10 165 -8.88762
11 165 -0.979491
12 165 -1.11049
13 165 -0.801322
14 165 -0.709811
15 165 -0.892021
16 165 -1.28099
17 165 -1.9995
18 165 -1.90405
19 165 -2.05924
20 165 -2.33432
21 165 -2.6696
22 165 -2.99355
23 165 -3.23799
24 165 -3.37133
25 165 -3.4597
26 165 -3.52479
27 165 -3.60463
28 165 -3.69222
29 165 -3.78568
30 165 -3.89563
31 165 -4.02111
32 165 -4.15097
33 165 -4.29066
34 165 -4.42013
35 165 -4.56089
36 165 -4.76248
37 165 -5.15174
38 165 -6.12612
39 165 -2.8328
40 165 -1.28884
41 165 -0.387072
42 165 0.102183
43 165 0.252789
44 165 0.166097
45 165 -0.0561547
46 165 -0.162791
47 165 -0.249431
48 165 -0.244755
49 165 -0.059974
50 165 0.00904181
51 165 -0.197735
52 165 -0.812304
53 165 -0.987626
54 165 -1.09267
55 165 -1.19527
56 165 -1.30768
57 165 -1.41907
58 165 -1.54671
59 165 -1.66741
60 165 -1.80192
61 165 -1.93328
62 165 -2.05564
63 165 -2.13774
64 165 -2.14772
65 165 -1.89432
66 165 -0.486711
67 165 0.609308
68 165 1.42341
69 165 1.9943
70 165 2.32893
71 165 2.45026
72 165 2.37653
73 165 2.18607
74 165 1.97227
75 165 1.95777
76 165 2.62646
77 165 3.0405
78 165 3.18975
79 165 3.0554
80 165 2.4955
81 165 2.55058
82 165 2.54938
83 165 2.54464
84 165 2.53755
85 165 2.54663
86 165 2.55467
87 165 2.5512
88 165 2.54588
89 165 2.54307
90 165 2.55405
91 165 2.58984
92 165 2.65448
93 165 2.78736
94 165 3.07814
95 165 3.46019
96 165 3.8401
97 165 4.16262
98 165 4.3541
99 165 4.41039
100 165 4.34968
101 165 4.21051
102 165 3.97024
103 165 3.33739
104 165 4.40715
105 165 5.05681
106 165 5.33158
107 165 5.24508
108 165 4.63324
109 165 2.973
110 165 -19.9866
111 165 -19.9866
112 165 -19.9866
113 165 -19.9866
114 165 -19.9866
115 165 -19.9866
116 165 -19.9866
117 165 -19.9866
118 165 -19.9866
119 165 -19.9866
0 166 -19.9866
1 166 -19.9866
2 166 -19.9866
3 166 -19.9866
4 166 -19.9866
5 166 -19.9866
6 166 -19.9866
7 166 -19.9866
8 166 -19.9866
9 166 -19.9866
10 166 -19.9866
11 166 0.926071
12 166 4.74883
13 166 5.57534
14 166 5.80429
15 166 5.73133
16 166 5.47034
17 166 5.4205
18 166 5.52784
19 166 5.40906
20 166 5.14231
21 166 4.76184
22 166 4.32833
23 166 3.95067
24 166 3.82893
25 166 3.85476
26 166 3.91132
27 166 3.98162
28 166 4.04021
29 166 4.08534
30 166 4.1236
31 166 4.14321
32 166 4.16239
33 166 4.184
34 166 4.21306
35 166 4.24138
36 166 4.25935
37 166 4.23199
38 166 4.02886
39 166 4.6722
40 166 5.49804
41 166 6.23731
42 166 6.72024
43 166 6.83396
44 166 6.69787
45 166 6.351
46 166 6.2693
47 166 6.17464
48 166 6.02003
49 166 5.84207
50 166 5.67112
51 166 5.5154
52 166 5.56521
53 166 5.62948
54 166 5.68182
55 166 5.71995
56 166 5.7441
57 166 5.76357
58 166 5.7711
59 166 5.77405
60 166 5.77152
61 166 5.77171
62 166 5.7777
63 166 5.79315
64 166 5.82816
65 166 5.88882
66 166 6.03299
67 166 6.58368
68 166 7.24988
69 166 7.82475
70 166 8.21987
71 166 8.3985
72 166 8.40177
73 166 8.27875
74 166 8.11897
75 166 7.9369
76 166 7.82878
77 166 8.00439
78 166 7.99828
79 166 7.76798
80 166 7.09302
81 166 6.9859
82 166 6.83585
83 166 6.66825
84 166 6.49123
85 166 6.32472
86 166 6.16034
87 166 6.00409
88 166 5.83082
89 166 5.67005
90 166 5.52398
91 166 5.44366
92 166 5.48356
93 166 5.83395
94 166 6.83789
95 166 7.84458
96 166 8.65289
97 166 9.20692
98 166 9.53079
99 166 9.63261
100 166 9.55491
101 166 9.35164
102 166 8.97099
103 166 8.08901
104 166 9.38083
105 166 10.164
106 166 10.7443
107 166 11.1908
108 166 12.1984
109 166 5.90827
110 166 -19.9866
111 166 -19.9866
112 166 -19.9866
113 166 -19.9866
114 166 -19.9866
115 166 -19.9866
116 166 -19.9866
117 166 -19.9866
118 166 -19.9866
119 166 -19.9866
0 167 -19.9866
1 167 -19.9866
2 167 -19.9866
3 167 -19.9866
4 167 -19.9866
5 167 -19.9866
6 167 -19.9866
7 167 -19.9866
8 167 -19.9866
9 167 -19.9866
10 167 -19.9866
11 167 4.87475
12 167 9.69002
13 167 10.3577
14 167 10.9008
15 167 10.9069
16 167 10.4426
17 167 7.88962
18 167 9.24034
19 167 10.6794
20 167 -2.89724e-10
21 167 -6.99286
22 167 -6.72431
23 167 -6.58811
24 167 -6.52384
25 167 -6.50717
26 167 -6.50836
27 167 -6.53331
28 167 -6.58689
29 167 -6.63716
30 167 -6.71887
31 167 -6.79421
32 167 -6.88942
33 167 -6.98196
34 167 -7.08492
35 167 -7.17715
36 167 -7.34563
37 167 -7.69994
38 167 -8.6457
39 167 -5.26398
40 167 -3.59852
41 167 -2.61894
42 167 -2.04582
43 167 -1.84453
44 167 -1.89971
45 167 -2.11162
46 167 -2.21103
47 167 -2.38155
48 167 -2.65178
49 167 -2.98571
50 167 -3.33127
51 167 -3.62046
52 167 -3.67753
53 167 -3.72633
54 167 -3.77463
55 167 -3.8569
56 167 -3.95264
57 167 -4.0519
58 167 -4.15066
59 167 -4.27678
60 167 -4.40465
61 167 -4.52793
62 167 -4.64018
63 167 -4.74409
64 167 -4.81072
65 167 -4.79527
66 167 -4.5373
67 167 -3.15294
68 167 -1.94608
69 167 -1.05479
70 167 -0.486356
71 167 -0.194051
72 167 -0.120292
73 167 -0.204048
74 167 -0.364907
75 167 -0.574438
76 167 -0.623042
77 167 -0.00291932
78 167 0.321522
79 167 0.23271
80 167 -1.50921
81 167 -1.36038
82 167 -1.40571
83 167 -1.49735
84 167 -1.60896
85 167 -1.71122
86 167 -1.83695
87 167 -1.95925
88 167 -2.07784
89 167 -2.19865
90 167 -2.2939
91 167 -2.32676
92 167 -2.22918
93 167 -1.80566
94 167 -0.737749
95 167 0.283585
96 167 1.0817
97 167 1.65099
98 167 1.98649
99 167 2.10675
100 167 2.05137
101 167 1.85402
102 167 1.47863
103 167 0.532163
104 167 2.49911
105 167 3.07174
106 167 3.30421
107 167 3.21383
108 167 1.25211
109 167 -19.9866
110 167 -19.9866
111 167 -19.9866
112 167 -19.9866
113 167 -19.9866
114 167 -19.9866
115 167 -19.9866
116 167 -19.9866
117 167 -19.9866
118 167 -19.9866
119 167 -19.9866
0 168 -19.9866
1 168 -19.9866
2 168 -19.9866
3 168 -19.9866
4 168 -19.9866
5 168 -19.9866
6 168 -19.9866
7 168 -19.9866
8 168 -19.9866
9 168 -19.9866
10 168 -19.9866
11 168 -3.59125
12 168 3.96232
13 168 3.54191
14 168 3.70385
15 168 3.71413
16 168 3.53999
17 168 3.93424
18 168 4.01199
19 168 3.9213
20 168 3.71562
21 168 3.46143
22 168 3.25353
23 168 3.16972
24 168 3.12992
25 168 3.09693
26 168 3.06822
27 168 3.03051
28 168 2.96143
29 168 2.87019
30 168 2.77037
31 168 2.65882
32 168 2.54842
33 168 2.42347
34 168 2.31112
35 168 2.19767
36 168 2.07503
37 168 1.92199
38 168 1.65226
39 168 0.995808
40 168 2.81315
41 168 3.90922
42 168 4.55165
43 168 4.85928
44 168 4.98539
45 168 5.05271
46 168 5.09604
47 168 5.00951
48 168 4.80693
49 168 4.4707
50 168 3.98084
51 168 3.40894
52 168 3.42332
53 168 3.52622
54 168 3.63366
55 168 3.71559
56 168 3.77983
57 168 3.82317
58 168 3.87513
59 168 3.90478
60 168 3.93101
61 168 3.95012
62 168 3.97936
63 168 4.03635
64 168 4.08836
65 168 4.16855
66 168 4.32335
67 168 4.77422
68 168 5.35066
69 168 5.9111
70 168 6.32183
71 168 6.51426
72 168 6.52993
73 168 6.41712
74 168 6.30538
75 168 6.16484
76 168 5.94875
77 168 5.72004
78 168 5.5551
79 168 5.1171
80 168 5.27918
81 168 5.34957
82 168 5.40349
83 168 5.43431
84 168 5.45649
85 168 5.4666
86 168 5.48576
87 168 5.49684
88 168 5.49916
89 168 5.50292
90 168 5.51916
91 168 5.54513
92 168 5.60702
93 168 5.71002
94 168 5.93356
95 168 6.41327
96 168 6.98774
97 168 7.49795
98 168 7.86628
99 168 8.05306
100 168 8.06602
101 168 7.98712
102 168 7.83519
103 168 7.58079
104 168 6.9813
105 168 7.83059
106 168 7.95497
107 168 7.92843
108 168 5.87643
109 168 -19.9866
110 168 -19.9866
111 168 -19.9866
112 168 -19.9866
113 168 -19.9866
114 168 -19.9866
115 168 -19.9866
116 168 -19.9866
117 168 -19.9866
118 168 -19.9866
119 168 -19.9866
0 169 -19.9866
1 169 -19.9866
2 169 -19.9866
3 169 -19.9866
4 169 -19.9866
5 169 -19.9866
6 169 -19.9866
7 169 -19.9866
8 169 -19.9866
9 169 -19.9866
10 169 -19.9866
11 169 -19.9866
12 169 4.87903
13 169 8.50372
14 169 8.11246
15 169 7.81024
16 169 7.10552
17 169 7.69907
18 169 7.89321
19 169 7.90178
20 169 7.78091
21 169 7.65287
22 169 7.64737
23 169 7.70775
24 169 7.77076
25 169 7.8345
26 169 7.88409
27 169 7.91199
28 169 7.91805
29 169 7.91412
30 169 7.90441
31 169 7.87685
32 169 7.8352
33 169 7.77849
34 169 7.73913
35 169 7.6914
36 169 7.64849
37 169 7.57764
38 169 7.4463
39 169 7.07578
40 169 8.16213
41 169 8.91205
42 169 9.40075
43 169 9.4752
44 169 9.13712
45 169 8.33032
46 169 8.3532
47 169 8.35454
48 169 -4.49181e-10
49 169 -6.77993
50 169 -6.91162
51 169 -6.82529
52 169 -6.79682
53 169 -6.78471
54 169 -6.78264
55 169 -6.80836
56 169 -6.84664
57 169 -6.89029
58 169 -6.95079
59 169 -7.02125
60 169 -7.10724
61 169 -7.19182
62 169 -7.27704
63 169 -7.33981
64 169 -7.36894
65 169 -7.31733
66 169 -7.00895
67 169 -5.53162
68 169 -4.23448
69 169 -3.24328
70 169 -2.58721
71 169 -2.22113
72 169 -2.08569
73 169 -2.11439
74 169 -2.19074
75 169 -2.35745
76 169 -2.62126
77 169 -3.01399
78 169 -3.46275
79 169 -4.00437
80 169 -3.95117
81 169 -3.97889
82 169 -4.04847
83 169 -4.13832
84 169 -4.23147
85 169 -4.33259
86 169 -4.43209
87 169 -4.53841
88 169 -4.66111
89 169 -4.78404
90 169 -4.89616
91 169 -4.97774
92 169 -5.00993
93 169 -4.89205
94 169 -4.46387
95 169 -3.39681
96 169 -2.3086
97 169 -1.4689
98 169 -0.891527
99 169 -0.583152
100 169 -0.4859
101 169 -0.543703
102 169 -0.705479
103 169 -1.07703
104 169 -2.0333
105 169 -0.0134052
106 169 0.683371
107 169 1.99109
108 169 -4.42788
109 169 -19.9866
110 169 -19.9866
111 169 -19.9866
112 169 -19.9866
113 169 -19.9866
114 169 -19.9866
115 169 -19.9866
116 169 -19.9866
117 169 -19.9866
118 169 -19.9866
119 169 -19.9866
0 170 -19.9866
1 170 -19.9866
2 170 -19.9866
3 170 -19.9866
4 170 -19.9866
5 170 -19.9866
6 170 -19.9866
7 170 -19.9866
8 170 -19.9866
9 170 -19.9866
10 170 -19.9866
11 170 -19.9866
12 170 -6.31015
13 170 1.39322
14 170 0.44968
15 170 -0.0527575
16 170 -2.48012
17 170 -1.33505
18 170 -0.939267
19 170 -0.81749
20 170 -0.856241
21 170 -0.987089
22 170 -0.960097
23 170 -0.911395
24 170 -0.856121
25 170 -0.795752
26 170 -0.758808
27 170 -0.730481
28 170 -0.722944
29 170 -0.740491
30 170 -0.78996
31 170 -0.840888
32 170 -0.901914
33 170 -0.968546
34 170 -1.04923
35 170 -1.14176
36 170 -1.25912
37 170 -1.43738
38 170 -1.8136
39 170 -2.79769
40 170 1.0075
41 170 1.94621
42 170 2.43446
43 170 2.73711
44 170 2.944
45 170 3.17511
46 170 3.29658
47 170 3.27793
48 170 3.1259
49 170 2.89152
50 170 2.71096
51 170 2.78822
52 170 2.7996
53 170 2.80204
54 170 2.77911
55 170 2.74641
56 170 2.68807
57 170 2.62625
58 170 2.55277
59 170 2.44287
60 170 2.33965
61 170 2.23383
62 170 2.11148
63 170 2.01181
64 170 1.92581
65 170 1.85877
66 170 1.85395
67 170 1.9948
68 170 2.82174
69 170 3.63114
70 170 4.24365
71 170 4.65936
72 170 4.90866
73 170 5.06507
74 170 5.14107
75 170 5.11262
76 170 4.96694
77 170 4.6835
78 170 4.05323
79 170 2.61949
80 170 3.08201
81 170 3.26317
82 170 3.37675
83 170 3.44596
84 170 3.50998
85 170 3.55443
86 170 3.6005
87 170 3.64282
88 170 3.67215
89 170 3.69858
90 170 3.73389
91 170 3.77773
92 170 3.83959
93 170 3.94598
94 170 4.15972
95 170 4.56022
96 170 5.07068
97 170 5.56957
98 170 5.94087
99 170 6.14334
100 170 6.16953
101 170 6.11115
102 170 6.03436
103 170 5.90425
104 170 5.65191
105 170 5.09628
106 170 5.32255
107 170 3.72822
108 170 -19.9866
109 170 -19.9866
110 170 -19.9866
111 170 -19.9866
112 170 -19.9866
113 170 -19.9866
114 170 -19.9866
115 170 -19.9866
116 170 -19.9866
117 170 -19.9866
118 170 -19.9866
119 170 -19.9866
0 171 -19.9866
1 171 -19.9866
2 171 -19.9866
3 171 -19.9866
4 171 -19.9866
5 171 -19.9866
6 171 -19.9866
7 171 -19.9866
8 171 -19.9866
9 171 -19.9866
10 171 -19.9866
11 171 -19.9866
12 171 -19.9866
13 171 3.78093
14 171 5.72303
15 171 5.70239
16 171 5.79493
17 171 6.02259
18 171 6.10701
19 171 6.04961
20 171 5.88804
21 171 5.75336
22 171 5.72651
23 171 5.72279
24 171 5.69849
25 171 5.65096
26 171 5.59329
27 171 5.51231
28 171 5.41509
29 171 5.30423
30 171 5.16492
31 171 5.01275
32 171 4.82592
33 171 4.61926
34 171 4.40716
35 171 4.19135
36 171 3.95255
37 171 3.70055
38 171 3.36885
39 171 2.83611
40 171 1.67184
41 171 4.70099
42 171 5.85925
43 171 6.322
44 171 6.46546
45 171 6.78721
46 171 7.00764
47 171 7.08641
48 171 7.04273
49 171 6.92324
50 171 7.11782
51 171 7.28865
52 171 7.41343
53 171 7.51577
54 171 7.58127
55 171 7.62981
56 171 7.67281
57 171 7.69085
58 171 7.70303
59 171 7.6931
60 171 7.65726
61 171 7.61473
62 171 7.57184
63 171 7.53427
64 171 7.51415
65 171 7.50727
66 171 7.53865
67 171 7.64601
68 171 8.16582
69 171 8.67501
70 171 9.00672
71 171 9.08252
72 171 8.87814
73 171 8.43465
74 171 8.01579
75 171 7.50168
76 171 -4.82432e-09
77 171 -6.0767
78 171 -6.86007
79 171 -6.96803
80 171 -6.98041
81 171 -6.99357
82 171 -7.01439
83 171 -7.05325
84 171 -7.10258
85 171 -7.15165
86 171 -7.21511
87 171 -7.28876
88 171 -7.37105
89 171 -7.44005
90 171 -7.52823
91 171 -7.58184
92 171 -7.56945
93 171 -7.42284
94 171 -6.94651
95 171 -5.80514
96 171 -4.6322
97 171 -3.69414
98 171 -3.0295
99 171 -2.64361
100 171 -2.47431
101 171 -2.45837
102 171 -2.48281
103 171 -2.62115
104 171 -2.87447
105 171 -3.31025
106 171 -3.9992
107 171 -5.45671
108 171 -19.9866
109 171 -19.9866
110 171 -19.9866
111 171 -19.9866
112 171 -19.9866
113 171 -19.9866
114 171 -19.9866
115 171 -19.9866
116 171 -19.9866
117 171 -19.9866
118 171 -19.9866
119 171 -19.9866
0 172 -19.9866
1 172 -19.9866
2 172 -19.9866
3 172 -19.9866
4 172 -19.9866
5 172 -19.9866
6 172 -19.9866
7 172 -19.9866
8 172 -19.9866
9 172 -19.9866
10 172 -19.9866
11 172 -19.9866
12 172 -19.9866
13 172 -19.9866
14 172 -6.80363
15 172 -3.86799
16 172 -3.89092
17 172 -3.79124
18 172 -3.71395
19 172 -3.60094
20 172 -3.56256
21 172 -3.42052
22 172 -3.23993
23 172 -3.08691
24 172 -2.97269
25 172 -2.88608
26 172 -2.8335
27 172 -2.79749
28 172 -2.78869
29 172 -2.79144
30 172 -2.82497
31 172 -2.88316
32 172 -2.97058
33 172 -3.09066
34 172 -3.24158
35 172 -3.41244
36 172 -3.59787
37 172 -3.82004
38 172 -4.12546
39 172 -4.63385
40 172 -5.76147
41 172 -2.24099
42 172 -1.71469
43 172 -1.83246
44 172 -2.40183
45 172 -2.1297
46 172 -1.88223
47 172 -1.74433
48 172 -1.7335
49 172 -1.80075
50 172 -1.57156
51 172 -1.38376
52 172 -1.24425
53 172 -1.14248
54 172 -1.06218
55 172 -1.00659
56 172 -0.977075
57 172 -0.966243
58 172 -0.971294
59 172 -0.9948
60 172 -1.0502
61 172 -1.11727
62 172 -1.18637
63 172 -1.25147
64 172 -1.31071
65 172 -1.34778
66 172 -1.31066
67 172 -1.01148
68 172 0.468926
69 172 1.4819
70 172 2.15913
71 172 2.63478
72 172 2.97159
73 172 3.23876
74 172 3.38513
75 172 3.3752
76 172 3.21049
77 172 2.85965
78 172 2.50311
79 172 2.6119
80 172 2.62268
81 172 2.5975
82 172 2.57168
83 172 2.5233
84 172 2.45656
85 172 2.37745
86 172 2.29376
87 172 2.19581
88 172 2.08209
89 172 1.97171
90 172 1.84838
91 172 1.74948
92 172 1.66309
93 172 1.61741
94 172 1.65578
95 172 1.89641
96 172 2.54418
97 172 3.26338
98 172 3.84576
99 172 4.25991
100 172 4.53524
101 172 4.72151
102 172 4.82844
103 172 4.82982
104 172 4.71123
105 172 4.49526
106 172 4.39283
107 172 -0.62594
108 172 -19.9866
109 172 -19.9866
110 172 -19.9866
111 172 -19.9866
112 172 -19.9866
113 172 -19.9866
114 172 -19.9866
115 172 -19.9866
116 172 -19.9866
117 172 -19.9866
118 172 -19.9866
119 172 -19.9866
0 173 -19.9866
1 173 -19.9866
2 173 -19.9866
3 173 -19.9866
4 173 -19.9866
5 173 -19.9866
6 173 -19.9866
7 173 -19.9866
8 173 -19.9866
9 173 -19.9866
10 173 -19.9866
11 173 -19.9866
12 173 -19.9866
13 173 -19.9866
14 173 -2.50168
15 173 3.01022
16 173 1.88434
17 173 2.71139
18 173 2.82954
19 173 3.03928
20 173 3.16564
21 173 3.42306
22 173 3.62883
23 173 3.82209
24 173 3.95256
25 173 4.04064
26 173 4.0851
27 173 4.10604
28 173 4.10563
29 173 4.06995
30 173 4.00055
31 173 3.88976
32 173 3.74635
33 173 3.56732
34 173 3.35185
35 173 3.09866
36 173 2.80026
37 173 2.48021
38 173 2.10404
39 173 1.62824
40 173 0.892031
41 173 -0.522619
42 173 2.29205
43 173 3.64099
44 173 4.24122
45 173 4.53242
46 173 4.71862
47 173 4.83399
48 173 4.80398
49 173 4.77769
50 173 4.99506
51 173 5.14346
52 173 5.22315
53 173 5.26346
54 173 5.26641
55 173 5.2417
56 173 5.1813
57 173 5.1002
58 173 4.99893
59 173 4.86584
60 173 4.70024
61 173 4.52402
62 173 4.3144
63 173 4.10873
64 173 3.89877
65 173 3.69838
66 173 3.5079
67 173 3.36869
68 173 3.44799
69 173 4.60074
70 173 5.51773
71 173 6.13563
72 173 6.54287
73 173 6.88783
74 173 7.12203
75 173 7.22301
76 173 7.09753
77 173 6.6038
78 173 6.93988
79 173 7.13566
80 173 7.25211
81 173 7.33127
82 173 7.38196
83 173 7.4161
84 173 7.44197
85 173 7.45361
86 173 7.44714
87 173 7.44491
88 173 7.40151
89 173 7.35893
90 173 7.30841
91 173 7.26002
92 173 7.22422
93 173 7.2143
94 173 7.27199
95 173 7.438
96 173 7.85517
97 173 8.27896
98 173 8.57271
99 173 8.62667
100 173 8.42566
101 173 8.02718
102 173 7.46725
103 173 6.36749
104 173 9.88641e-10
105 173 -6.01868
106 173 -7.78042
107 173 -19.9866
108 173 -19.9866
109 173 -19.9866
110 173 -19.9866
111 173 -19.9866
112 173 -19.9866
113 173 -19.9866
114 173 -19.9866
115 173 -19.9866
116 173 -19.9866
117 173 -19.9866
118 173 -19.9866
119 173 -19.9866
0 174 -19.9866
1 174 -19.9866
2 174 -19.9866
3 174 -19.9866
4 174 -19.9866
5 174 -19.9866
6 174 -19.9866
7 174 -19.9866
8 174 -19.9866
9 174 -19.9866
10 174 -19.9866
11 174 -19.9866
12 174 -19.9866
13 174 -19.9866
14 174 -19.9866
15 174 -17.758
16 174 -7.63738
17 174 -8.39906
18 174 -8.1088
19 174 -7.89542
20 174 -7.34555
21 174 -6.88677
22 174 -6.47096
23 174 -6.09058
24 174 -5.78077
25 174 -5.5276
26 174 -5.33291
27 174 -5.1685
28 174 -5.04724
29 174 -4.97313
30 174 -4.94762
31 174 -4.95646
32 174 -5.02313
33 174 -5.1256
34 174 -5.27981
35 174 -5.49211
36 174 -5.74182
37 174 -6.0431
38 174 -6.41361
39 174 -6.8623
40 174 -7.43396
41 174 -8.27393
42 174 -9.73651
43 174 -6.74972
44 174 -6.04735
45 174 -5.50898
46 174 -5.19613
47 174 -4.99455
48 174 -4.86944
49 174 -4.44031
50 174 -4.07529
51 174 -3.76172
52 174 -3.51154
53 174 -3.32304
54 174 -3.1833
55 174 -3.08036
56 174 -3.01807
57 174 -2.97682
58 174 -2.96464
59 174 -3.00692
60 174 -3.07001
61 174 -3.16915
62 174 -3.2999
63 174 -3.4518
64 174 -3.61845
65 174 -3.77909
66 174 -3.94401
67 174 -4.07474
68 174 -3.97976
69 174 -2.82115
70 174 -2.20169
71 174 -1.99203
72 174 -1.9546
73 174 -1.7821
74 174 -1.61381
75 174 -1.5439
76 174 -1.63611
77 174 -2.07989
78 174 -1.73264
79 174 -1.52936
80 174 -1.39466
81 174 -1.31333
82 174 -1.23864
83 174 -1.20904
84 174 -1.19261
85 174 -1.20125
86 174 -1.22221
87 174 -1.25605
88 174 -1.30471
89 174 -1.3742
90 174 -1.45733
91 174 -1.53178
92 174 -1.59823
93 174 -1.61759
94 174 -1.49405
95 174 -1.04718
96 174 0.0424252
97 174 1.00016
98 174 1.69908
99 174 2.20079
100 174 2.5721
101 174 2.85996
102 174 3.02084
103 174 3.03107
104 174 2.81539
105 174 2.27616
106 174 1.73673
107 174 -19.9866
108 174 -19.9866
109 174 -19.9866
110 174 -19.9866
111 174 -19.9866
112 174 -19.9866
113 174 -19.9866
114 174 -19.9866
115 174 -19.9866
116 174 -19.9866
117 174 -19.9866
118 174 -19.9866
119 174 -19.9866
0 175 -19.9866
1 175 -19.9866
2 175 -19.9866
3 175 -19.9866
4 175 -19.9866
5 175 -19.9866
6 175 -19.9866
7 175 -19.9866
8 175 -19.9866
9 175 -19.9866
10 175 -19.9866
11 175 -19.9866
12 175 -19.9866
13 175 -19.9866
14 175 -19.9866
15 175 -19.9866
16 175 -9.30301
17 175 -3.1991
18 175 -2.23921
19 175 -1.45642
20 175 -0.696288
21 175 -0.170276
22 175 0.340284
23 175 0.859649
24 175 1.26318
25 175 1.65152
26 175 1.93911
27 175 2.17181
28 175 2.35587
29 175 2.47226
30 175 2.53831
31 175 2.54844
32 175 2.49945
33 175 2.39389
34 175 2.23756
35 175 2.01634
36 175 1.7229
37 175 1.35894
38 175 0.907085
39 175 0.364891
40 175 -0.306741
41 175 -1.22456
42 175 -2.71751
43 175 -0.173076
44 175 0.271557
45 175 0.887496
46 175 1.18534
47 175 1.39632
48 175 1.71899
49 175 2.22273
50 175 2.65666
51 175 3.01661
52 175 3.29305
53 175 3.52402
54 175 3.68788
55 175 3.79611
56 175 3.8579
57 175 3.88069
58 175 3.85874
59 175 3.79123
60 175 3.67363
61 175 3.52065
62 175 3.31536
63 175 3.0928
64 175 2.82859
65 175 2.52807
66 175 2.21025
67 175 1.8728
68 175 1.57448
69 175 1.45573
70 175 2.48202
71 175 3.42196
72 175 4.09712
73 175 4.55966
74 175 4.84386
75 175 4.94681
76 175 4.80603
77 175 4.58042
78 175 4.8546
79 175 5.01069
80 175 5.08373
81 175 5.10611
82 175 5.09233
83 175 5.04941
84 175 4.98041
85 175 4.87316
86 175 4.74816
87 175 4.60993
88 175 4.42814
89 175 4.23709
90 175 4.02596
91 175 3.78783
92 175 3.56248
93 175 3.35994
94 175 3.19861
95 175 3.1404
96 175 3.36656
97 175 4.20191
98 175 5.02118
99 175 5.65563
100 175 6.12894
101 175 6.4951
102 175 6.74887
103 175 6.85271
104 175 6.74332
105 175 5.55219
106 175 -19.9866
107 175 -19.9866
108 175 -19.9866
109 175 -19.9866
110 175 -19.9866
111 175 -19.9866
112 175 -19.9866
113 175 -19.9866
114 175 -19.9866
115 175 -19.9866
116 175 -19.9866
117 175 -19.9866
118 175 -19.9866
119 175 -19.9866
0 176 -19.9866
1 176 -19.9866
2 176 -19.9866
3 176 -19.9866
4 176 -19.9866
5 176 -19.9866
6 176 -19.9866
7 176 -19.9866
8 176 -19.9866
9 176 -19.9866
10 176 -19.9866
11 176 -19.9866
12 176 -19.9866
13 176 -19.9866
14 176 -19.9866
15 176 -19.9866
16 176 -19.9866
17 176 -8.24637
18 176 -5.01951
19 176 -4.29274
20 176 -4.05852
21 176 -3.54488
22 176 -2.87779
23 176 -2.25644
24 176 -1.71799
25 176 -1.23278
26 176 -0.827412
27 176 -0.522841
28 176 -0.27121
29 176 -0.0913881
30 176 0.00835596
31 176 0.0339598
32 176 0.0162787
33 176 -0.078078
34 176 -0.23177
35 176 -0.44054
36 176 -0.721211
37 176 -1.01085
38 176 -1.13484
39 176 -0.385991
40 176 7.26495e-09
41 176 -13.0916
42 176 -13.7546
43 176 -15.4466
44 176 -11.2685
45 176 -10.6171
46 176 -10.2735
47 176 -9.77436
48 176 -8.95082
49 176 -8.24012
50 176 -7.59872
51 176 -7.02649
52 176 -6.54728
53 176 -6.12775
54 176 -5.80104
55 176 -5.52205
56 176 -5.32027
57 176 -5.17664
58 176 -5.07859
59 176 -5.05532
60 176 -5.0807
61 176 -5.15112
62 176 -5.27679
63 176 -5.46211
64 176 -5.68741
65 176 -5.97157
66 176 -6.30889
67 176 -6.67952
68 176 -7.11683
69 176 -7.54505
70 176 -7.73337
71 176 -6.78419
72 176 -6.06976
73 176 -5.48264
74 176 -5.10187
75 176 -4.89201
76 176 -5.26583
77 176 -4.62545
78 176 -4.20193
79 176 -3.89232
80 176 -3.65102
81 176 -3.49213
82 176 -3.35254
83 176 -3.27699
84 176 -3.21976
85 176 -3.20603
86 176 -3.22497
87 176 -3.27133
88 176 -3.35268
89 176 -3.47277
90 176 -3.62103
91 176 -3.78323
92 176 -3.97791
93 176 -4.16338
94 176 -4.29907
95 176 -4.35846
96 176 -4.13845
97 176 -3.34501
98 176 -2.77312
99 176 -2.48448
100 176 -2.34103
101 176 -2.15752
102 176 -1.97866
103 176 -1.90377
104 176 -1.98792
105 176 -2.87191
106 176 -19.9866
107 176 -19.9866
108 176 -19.9866
109 176 -19.9866
110 176 -19.9866
111 176 -19.9866
112 176 -19.9866
113 176 -19.9866
114 176 -19.9866
115 176 -19.9866
116 176 -19.9866
117 176 -19.9866
118 176 -19.9866
119 176 -19.9866
0 177 -19.9866
1 177 -19.9866
2 177 -19.9866
3 177 -19.9866
4 177 -19.9866
5 177 -19.9866
6 177 -19.9866
7 177 -19.9866
8 177 -19.9866
9 177 -19.9866
10 177 -19.9866
11 177 -19.9866
12 177 -19.9866
13 177 -19.9866
14 177 -19.9866
15 177 -19.9866
16 177 -19.9866
17 177 -19.9866
18 177 -7.31568
19 177 -4.22763
20 177 -3.1051
21 177 -2.58678
22 177 -1.86885
23 177 -1.18614
24 177 -0.543099
25 177 0.100678
26 177 0.62696
27 177 1.05106
28 177 1.35295
29 177 1.5542
30 177 1.68386
31 177 1.73852
32 177 1.73513
33 177 1.65634
34 177 1.49201
35 177 1.26488
36 177 0.913336
37 177 0.46654
38 177 -0.13038
39 177 -0.855779
40 177 -1.70614
41 177 -2.59541
42 177 -3.52723
43 177 -4.52551
44 177 -5.71496
45 177 -5.5092
46 177 -4.55905
47 177 -3.64147
48 177 -2.62595
49 177 -1.74241
50 177 -0.975718
51 177 -0.260759
52 177 0.35973
53 177 0.910041
54 177 1.37132
55 177 1.74915
56 177 2.03909
57 177 2.25667
58 177 2.38982
59 177 2.453
60 177 2.45166
61 177 2.385
62 177 2.2704
63 177 2.07667
64 177 1.81687
65 177 1.49409
66 177 1.08308
67 177 0.578946
68 177 0.0205499
69 177 -0.521796
70 177 -0.872136
71 177 -0.135871
72 177 0.4179
73 177 0.93009
74 177 1.27592
75 177 1.35377
76 177 1.49786
77 177 2.07453
78 177 2.51769
79 177 2.87704
80 177 3.14989
81 177 3.35312
82 177 3.49321
83 177 3.59736
84 177 3.63869
85 177 3.64048
86 177 3.60014
87 177 3.51783
88 177 3.3888
89 177 3.19276
90 177 2.96287
91 177 2.70718
92 177 2.40461
93 177 2.08057
94 177 1.76272
95 177 1.45637
96 177 1.24352
97 177 1.31489
98 177 2.04549
99 177 2.88624
100 177 3.56651
101 177 4.05958
102 177 4.39585
103 177 4.49731
104 177 4.22058
105 177 3.69266
106 177 -19.9866
107 177 -19.9866
108 177 -19.9866
109 177 -19.9866
110 177 -19.9866
111 177 -19.9866
112 177 -19.9866
113 177 -19.9866
114 177 -19.9866
115 177 -19.9866
116 177 -19.9866
117 177 -19.9866
118 177 -19.9866
119 177 -19.9866
0 178 -19.9866
1 178 -19.9866
2 178 -19.9866
3 178 -19.9866
4 178 -19.9866
5 178 -19.9866
6 178 -19.9866
7 178 -19.9866
8 178 -19.9866
9 178 -19.9866
10 178 -19.9866
11 178 -19.9866
12 178 -19.9866
13 178 -19.9866
14 178 -19.9866
15 178 -19.9866
16 178 -19.9866
17 178 -19.9866
18 178 -19.9866
19 178 -11.5231
20 178 -8.52124
21 178 -8.53521
22 178 -7.51446
23 178 -6.79276
24 178 -5.88964
25 178 -5.13575
26 178 -4.44358
27 178 -3.94343
28 178 -3.57474
29 178 -3.31681
30 178 -3.15773
31 178 -3.08045
32 178 -3.06719
33 178 -3.14142
34 178 -3.28964
35 178 -3.53494
36 178 -3.88318
37 178 -4.36077
38 178 -4.99874
39 178 -5.81431
40 178 -6.79212
41 178 -7.80399
42 178 -8.82039
43 178 -9.84451
44 178 -10.985
45 178 -12.6331
46 178 -9.94344
47 178 -7.70271
48 178 -6.44446
49 178 -5.3868
50 178 -4.4361
51 178 -3.56759
52 178 -2.78747
53 178 -2.09437
54 178 -1.50354
55 178 -1.0368
56 178 -0.65697
57 178 -0.369441
58 178 -0.17573
59 178 -0.0713713
60 178 -0.0551735
61 178 -0.0911073
62 178 -0.200513
63 178 -0.376675
64 178 -0.666657
65 178 -1.11293
66 178 -1.89115
67 178 -3.99943
68 178 -1.76852e-09
69 178 -11.5922
70 178 -12.505
71 178 -12.8288
72 178 -11.6119
73 178 -10.8641
74 178 -10.4119
75 178 -10.0818
76 178 -9.15512
77 178 -8.395
78 178 -7.74518
79 178 -7.18769
80 178 -6.72186
81 178 -6.32296
82 178 -6.01934
83 178 -5.75136
84 178 -5.5573
85 178 -5.43726
86 178 -5.36393
87 178 -5.36222
88 178 -5.40576
89 178 -5.51308
90 178 -5.6798
91 178 -5.88134
92 178 -6.15393
93 178 -6.48315
94 178 -6.83418
95 178 -7.21156
96 178 -7.62027
97 178 -7.95256
98 178 -7.94715
99 178 -7.28471
100 178 -6.59615
101 178 -5.99681
102 178 -5.51555
103 178 -5.30037
104 178 -6.70217
105 178 -19.9866
106 178 -19.9866
107 178 -19.9866
108 178 -19.9866
109 178 -19.9866
110 178 -19.9866
111 178 -19.9866
112 178 -19.9866
113 178 -19.9866
114 178 -19.9866
115 178 -19.9866
116 178 -19.9866
117 178 -19.9866
118 178 -19.9866
119 178 -19.9866
0 179 -19.9866
1 179 -19.9866
2 179 -19.9866
3 179 -19.9866
4 179 -19.9866
5 179 -19.9866
6 179 -19.9866
7 179 -19.9866
8 179 -19.9866
9 179 -19.9866
10 179 -19.9866
11 179 -19.9866
12 179 -19.9866
13 179 -19.9866
14 179 -19.9866
15 179 -19.9866
16 179 -19.9866
17 179 -19.9866
18 179 -19.9866
19 179 -19.9866
20 179 -8.3021
21 179 -6.9863
22 179 -4.78976
23 179 -3.63023
24 179 -2.69365
25 179 -1.71334
26 179 -0.937236
27 179 -0.362928
28 179 0.0934249
29 179 0.41495
30 179 0.617331
31 179 0.706672
32 179 0.729005
33 179 0.673341
34 179 0.538109
35 179 0.306111
36 179 -0.0348867
37 179 -0.504165
38 179 -1.18227
39 179 -2.06991
40 179 -3.17385
41 179 -4.37782
42 179 -5.55589
43 179 -6.71901
44 179 -7.87355
45 179 -9.20697
46 179 -11.5637
47 179 -8.09898
48 179 -5.98998
49 179 -4.7864
50 179 -3.68396
51 179 -2.66139
52 179 -1.74528
53 179 -0.916877
54 179 -0.205059
55 179 0.396087
56 179 0.856663
57 179 1.20764
58 179 1.45018
59 179 1.5993
60 179 1.6449
61 179 1.62864
62 179 1.53345
63 179 1.35983
64 179 1.07721
65 179 0.690264
66 179 0.123858
67 179 -0.613881
68 179 -1.50789
69 179 -2.3663
70 179 -3.21867
71 179 -4.06278
72 179 -4.62098
73 179 -4.67923
74 179 -4.29666
75 179 -3.88673
76 179 -2.84733
77 179 -1.93764
78 179 -1.15135
79 179 -0.450517
80 179 0.168292
81 179 0.689729
82 179 1.11831
83 179 1.48885
84 179 1.76507
85 179 1.95897
86 179 2.08513
87 179 2.12825
88 179 2.09457
89 179 1.9894
90 179 1.80636
91 179 1.56133
92 179 1.27198
93 179 0.888758
94 179 0.442529
95 179 -0.0625523
96 179 -0.584387
97 179 -1.05343
98 179 -1.18318
99 179 -0.698892
100 179 -0.144656
101 179 0.400359
102 179 0.809351
103 179 0.972454
104 179 0.648121
105 179 -19.9866
106 179 -19.9866
107 179 -19.9866
108 179 -19.9866
109 179 -19.9866
110 179 -19.9866
111 179 -19.9866
112 179 -19.9866
113 179 -19.9866
114 179 -19.9866
115 179 -19.9866
116 179 -19.9866
117 179 -19.9866
118 179 -19.9866
119 179 -19.9866
0 180 -19.9866
1 180 -19.9866
2 180 -19.9866
3 180 -19.9866
4 180 -19.9866
5 180 -19.9866
6 180 -19.9866
7 180 -19.9866
8 180 -19.9866
9 180 -19.9866
10 180 -19.9866
11 180 -19.9866
12 180 -19.9866
13 180 -19.9866
14 180 -19.9866
15 180 -19.9866
16 180 -19.9866
17 180 -19.9866
18 180 -19.9866
19 180 -19.9866
20 180 -19.9866
21 180 -15.3605
22 180 -12.728
23 180 -10.4598
24 180 -9.85503
25 180 -8.88863
26 180 -7.99642
27 180 -7.34977
28 180 -6.85469
29 180 -6.50785
30 180 -6.26772
31 180 -6.14284
32 180 -6.06927
33 180 -6.11063
34 180 -6.23264
35 180 -6.44544
36 180 -6.78106
37 180 -7.27258
38 180 -7.97759
39 180 -8.93977
40 180 -10.1412
41 180 -11.4135
42 180 -12.6211
43 180 -13.6203
44 180 -14.4306
45 180 -14.898
46 180 -15.1103
47 180 -15.6848
48 180 -11.9018
49 180 -10.5153
50 180 -9.38313
51 180 -8.25069
52 180 -7.20127
53 180 -6.23863
54 180 -5.40447
55 180 -4.72184
56 180 -4.18918
57 180 -3.76065
58 180 -3.46179
59 180 -3.28877
60 180 -3.209
61 180 -3.19801
62 180 -3.26595
63 180 -3.44523
64 180 -3.73354
65 180 -4.13121
66 180 -4.69888
67 180 -5.52353
68 180 -6.55481
69 180 -7.59053
70 180 -8.58607
71 180 -9.43657
72 180 -10.1436
73 180 -10.5159
74 180 -10.2745
75 180 -8.21935
76 180 -6.78138
77 180 -5.65264
78 180 -4.68367
79 180 -3.81832
80 180 -3.03109
81 180 -2.36791
82 180 -1.80056
83 180 -1.33513
84 180 -0.963239
85 180 -0.696571
86 180 -0.5295
87 180 -0.450357
88 180 -0.450366
89 180 -0.5397
90 180 -0.730345
91 180 -0.975039
92 180 -1.32969
93 180 -1.83294
94 180 -2.5244
95 180 -3.03321
96 180 -3.34231e-10
97 180 -12.2968
98 180 -12.9847
99 180 -13.1111
100 180 -12.308
101 180 -11.5752
102 180 -10.9943
103 180 -11.0498
104 180 -19.9866
105 180 -19.9866
106 180 -19.9866
107 180 -19.9866
108 180 -19.9866
109 180 -19.9866
110 180 -19.9866
111 180 -19.9866
112 180 -19.9866
113 180 -19.9866
114 180 -19.9866
115 180 -19.9866
116 180 -19.9866
117 180 -19.9866
118 180 -19.9866
119 180 -19.9866
0 181 -19.9866
1 181 -19.9866
2 181 -19.9866
3 181 -19.9866
4 181 -19.9866
5 181 -19.9866
6 181 -19.9866
7 181 -19.9866
8 181 -19.9866
9 181 -19.9866
10 181 -19.9866
11 181 -19.9866
12 181 -19.9866
13 181 -19.9866
14 181 -19.9866
15 181 -19.9866
16 181 -19.9866
17 181 -19.9866
18 181 -19.9866
19 181 -19.9866
20 181 -19.9866
21 181 -19.9866
22 181 -4.86225
23 181 -4.13767
24 181 -1.57516
25 181 -0.910795
26 181 0.109392
27 181 0.842881
28 181 1.37126
29 181 1.7831
30 181 2.05632
31 181 2.21059
32 181 2.29379
33 181 2.265
34 181 2.15026
35 181 1.91162
36 181 1.5282
37 181 1.03122
38 181 0.346051
39 181 -0.597764
40 181 -1.91717
41 181 -3.31502
42 181 -4.68573
43 181 -6.02825
44 181 -7.10074
45 181 -7.46102
46 181 -7.71538
47 181 -7.87719
48 181 -8.01818
49 181 -7.32222
50 181 -6.13471
51 181 -5.13153
52 181 -4.0139
53 181 -2.97594
54 181 -2.03264
55 181 -1.26956
56 181 -0.644861
57 181 -0.159898
58 181 0.193726
59 181 0.414418
60 181 0.528018
61 181 0.567628
62 181 0.520845
63 181 0.366312
64 181 0.111396
65 181 -0.250401
66 181 -0.84124
67 181 -1.70265
68 181 -2.85235
69 181 -4.09515
70 181 -5.28507
71 181 -6.43133
72 181 -7.35607
73 181 -7.82417
74 181 -10.758
75 181 -8.51094
76 181 -6.55275
77 181 -5.16683
78 181 -4.00264
79 181 -2.95659
80 181 -2.02434
81 181 -1.23008
82 181 -0.520263
83 181 0.0534392
84 181 0.50258
85 181 0.838214
86 181 1.05051
87 181 1.16352
88 181 1.19976
89 181 1.11589
90 181 0.943765
91 181 0.697626
92 181 0.340695
93 181 -0.150816
94 181 -0.774971
95 181 -1.53892
96 181 -2.41534
97 181 -3.26689
98 181 -4.04501
99 181 -4.73345
100 181 -5.20655
101 181 -5.21523
102 181 -5.01293
103 181 -4.8564
104 181 -19.9866
105 181 -19.9866
106 181 -19.9866
107 181 -19.9866
108 181 -19.9866
109 181 -19.9866
110 181 -19.9866
111 181 -19.9866
112 181 -19.9866
113 181 -19.9866
114 181 -19.9866
115 181 -19.9866
116 181 -19.9866
117 181 -19.9866
118 181 -19.9866
119 181 -19.9866
0 182 -19.9866
1 182 -19.9866
2 182 -19.9866
3 182 -19.9866
4 182 -19.9866
5 182 -19.9866
6 182 -19.9866
7 182 -19.9866
8 182 -19.9866
9 182 -19.9866
10 182 -19.9866
11 182 -19.9866
12 182 -19.9866
13 182 -19.9866
14 182 -19.9866
15 182 -19.9866
16 182 -19.9866
17 182 -19.9866
18 182 -19.9866
19 182 -19.9866
20 182 -19.9866
21 182 -19.9866
22 182 -19.9866
23 182 -10.6779
24 182 -9.96385
25 182 -7.32413
26 182 -6.09464
27 182 -5.5233
28 182 -4.96882
29 182 -4.5458
