ply
format ascii 1.0
comment Created by Open3D
element vertex 3084
property double x
property double y
property double z
end_header
81 0 -5.63345
82 0 -5.63345
83 0 -5.63345
84 0 -5.63345
85 0 -5.63345
86 0 -5.63345
87 0 -5.63345
88 0 -5.63345
89 0 -5.63345
90 0 -5.63345
91 0 -5.63345
92 0 -5.63345
93 0 -5.63345
94 0 -5.63345
95 0 -5.63345
96 0 -5.63345
97 0 -5.63345
98 0 -5.63345
99 0 -5.63345
100 0 -5.63345
101 0 -5.63345
102 0 -5.63345
103 0 -5.63345
104 0 -5.63345
105 0 -5.63345
106 0 -5.63345
107 0 -5.63345
108 0 -5.63345
109 0 -5.63345
110 0 -5.63345
111 0 -5.63345
112 0 -5.63345
113 0 -5.63345
114 0 -5.63345
115 0 -5.63345
116 0 -5.63345
117 0 -5.63345
118 0 -5.63345
119 0 -5.63345
0 1 -5.63345
1 1 -5.63345
2 1 -5.63345
3 1 -5.63345
4 1 -5.63345
5 1 -5.63345
6 1 -5.63345
7 1 -5.63345
8 1 -5.63345
9 1 -5.63345
10 1 -5.63345
11 1 -5.63345
12 1 -5.63345
13 1 -5.63345
14 1 -5.63345
15 1 -5.63345
16 1 -5.63345
17 1 -5.63345
18 1 -5.63345
19 1 -5.63345
20 1 -5.63345
21 1 -5.63345
22 1 -5.63345
23 1 -5.63345
24 1 -5.63345
25 1 -5.63345
26 1 -5.63345
27 1 -5.63345
28 1 -5.63345
29 1 -5.63345
30 1 -5.63345
31 1 -5.63345
32 1 -5.63345
33 1 -5.63345
34 1 -5.63345
35 1 -5.63345
36 1 -5.63345
37 1 -5.63345
38 1 -5.63345
39 1 -5.63345
40 1 -5.63345
41 1 -5.63345
42 1 -5.63345
43 1 -5.63345
44 1 -5.63345
45 1 -5.63345
46 1 -5.63345
47 1 -5.63345
48 1 -5.63345
49 1 -5.63345
50 1 -5.63345
51 1 -5.63345
52 1 -5.63345
53 1 -5.63345
54 1 -5.63345
55 1 -5.63345
56 1 -5.63345
57 1 -5.63345
58 1 -5.63345
59 1 -5.63345
60 1 -5.63345
61 1 -5.63345
62 1 -5.63345
63 1 -5.63345
64 1 -5.63345
65 1 -5.63345
66 1 -5.63345
67 1 -5.63345
68 1 -5.63345
69 1 -5.63345
70 1 -5.63345
71 1 -5.63345
72 1 -5.63345
73 1 -5.63345
74 1 -5.63345
75 1 -5.63345
76 1 -5.63345
77 1 -5.63345
78 1 -5.63345
79 1 -5.63345
80 1 -5.63345
81 1 -5.63345
82 1 -5.63345
83 1 -5.63345
84 1 -5.63345
85 1 -5.63345
86 1 -5.63345
87 1 -5.63345
88 1 -5.63345
89 1 -5.63345
90 1 -5.63345
91 1 -5.63345
92 1 -5.63345
93 1 -5.63345
94 1 -5.63345
95 1 -5.63345
96 1 -5.63345
97 1 -5.63345
98 1 -5.63345
99 1 -5.63345
100 1 -5.63345
101 1 -5.63345
102 1 -5.63345
103 1 -5.63345
104 1 -5.63345
105 1 -5.63345
106 1 -5.63345
107 1 -5.63345
108 1 -5.63345
109 1 -5.63345
110 1 -5.63345
111 1 -5.63345
112 1 -5.63345
113 1 -5.63345
114 1 -5.63345
115 1 -5.63345
116 1 -5.63345
117 1 -5.63345
118 1 -5.63345
119 1 -5.63345
0 2 -5.63345
1 2 -5.63345
2 2 -5.63345
3 2 -5.63345
4 2 -5.63345
5 2 -5.63345
6 2 -5.63345
7 2 -5.63345
8 2 -5.63345
9 2 -5.63345
10 2 -5.63345
11 2 -5.63345
12 2 -5.63345
13 2 -5.63345
14 2 -5.63345
15 2 -5.63345
16 2 -5.63345
17 2 -5.63345
18 2 -5.63345
19 2 -5.63345
20 2 -5.63345
21 2 -5.63345
22 2 -5.63345
23 2 -5.63345
24 2 -5.63345
25 2 -5.63345
26 2 -5.63345
27 2 -5.63345
28 2 -5.63345
29 2 -5.63345
30 2 -5.63345
31 2 -5.63345
32 2 -5.63345
33 2 -5.63345
34 2 -5.63345
35 2 -5.63345
36 2 -5.63345
37 2 -5.63345
38 2 -5.63345
39 2 -5.63345
40 2 -5.63345
41 2 -5.63345
42 2 -5.63345
43 2 -5.63345
44 2 -5.63345
45 2 -5.63345
46 2 -5.63345
47 2 -5.63345
48 2 -5.63345
49 2 -5.63345
50 2 -5.63345
51 2 -5.63345
52 2 -5.63345
53 2 -5.63345
54 2 -5.63345
55 2 -5.63345
56 2 -5.63345
57 2 -5.63345
58 2 -5.63345
59 2 -5.63345
60 2 -5.63345
61 2 -5.63345
62 2 -5.63345
63 2 -5.63345
64 2 -5.63345
65 2 -5.63345
66 2 -5.63345
67 2 -5.63345
68 2 -5.63345
69 2 -5.63345
70 2 -5.63345
71 2 -5.63345
72 2 -5.63345
73 2 -5.63345
74 2 -5.63345
75 2 -5.63345
76 2 -5.63345
77 2 -5.63345
78 2 -5.63345
79 2 -5.63345
80 2 -5.63345
81 2 -5.63345
82 2 -5.63345
83 2 -5.63345
84 2 -5.63345
85 2 -5.63345
86 2 -5.63345
87 2 -5.63345
88 2 -5.63345
89 2 -5.63345
90 2 -5.63345
91 2 -5.63345
92 2 -5.63345
93 2 -5.63345
94 2 -5.63345
95 2 -5.63345
96 2 -5.63345
97 2 -5.63345
98 2 -5.63345
99 2 -5.63345
100 2 -5.63345
101 2 -5.63345
102 2 -5.63345
103 2 -5.63345
104 2 -5.63345
105 2 -5.63345
106 2 -5.63345
107 2 -5.63345
108 2 -5.63345
109 2 -5.63345
110 2 -5.63345
111 2 -5.63345
112 2 -5.63345
113 2 -5.63345
114 2 -5.63345
115 2 -5.63345
116 2 -5.63345
117 2 -5.63345
118 2 -5.63345
119 2 -5.63345
0 3 -5.63345
1 3 -5.63345
2 3 -5.63345
3 3 -5.63345
4 3 -5.63345
5 3 -5.63345
6 3 -5.63345
7 3 -5.63345
8 3 -5.63345
9 3 -5.63345
10 3 -5.63345
11 3 -5.63345
12 3 -5.63345
13 3 -5.63345
14 3 -5.63345
15 3 -5.63345
16 3 -5.63345
17 3 -5.63345
18 3 -5.63345
19 3 -5.63345
20 3 -5.63345
21 3 -5.63345
22 3 -5.63345
23 3 -5.63345
24 3 -5.63345
25 3 -5.63345
26 3 -5.63345
27 3 -5.63345
28 3 -5.63345
29 3 -5.63345
30 3 -5.63345
31 3 -5.63345
32 3 -5.63345
33 3 -5.63345
34 3 -5.63345
35 3 -5.63345
36 3 -5.63345
37 3 -5.63345
38 3 -5.63345
39 3 -5.63345
40 3 -5.63345
41 3 -5.63345
42 3 -5.63345
43 3 -5.63345
44 3 -5.63345
45 3 -5.63345
46 3 -5.63345
47 3 -5.63345
48 3 -5.63345
49 3 -5.63345
50 3 -5.63345
51 3 -5.63345
52 3 -5.63345
53 3 -5.63345
54 3 -5.63345
55 3 -5.63345
56 3 -5.63345
57 3 -5.63345
58 3 -5.63345
59 3 -5.63345
60 3 -5.63345
61 3 -5.63345
62 3 -5.63345
63 3 -5.63345
64 3 -5.63345
65 3 -5.63345
66 3 -5.63345
67 3 -5.63345
68 3 -5.63345
69 3 -5.63345
70 3 -5.63345
71 3 -5.63345
72 3 -5.63345
73 3 -5.63345
74 3 -5.63345
75 3 -5.63345
76 3 -5.63345
77 3 -5.63345
78 3 -5.63345
79 3 -5.63345
80 3 -5.63345
81 3 -5.63345
82 3 -5.63345
83 3 -5.63345
84 3 -5.63345
85 3 -5.63345
86 3 -5.63345
87 3 -5.63345
88 3 -5.63345
89 3 -5.63345
90 3 -5.63345
91 3 -5.63345
92 3 -5.63345
93 3 -5.63345
94 3 -5.63345
95 3 -5.63345
96 3 -5.63345
97 3 -5.63345
98 3 -5.63345
99 3 -5.63345
100 3 -5.63345
101 3 -5.63345
102 3 -5.63345
103 3 -5.63345
104 3 -5.63345
105 3 -5.63345
106 3 -5.63345
107 3 -5.63345
108 3 -5.63345
109 3 -5.63345
110 3 -5.63345
111 3 -5.63345
112 3 -5.63345
113 3 -5.63345
114 3 -5.63345
115 3 -5.63345
116 3 -5.63345
117 3 -5.63345
118 3 -5.63345
119 3 -5.63345
0 4 -5.63345
1 4 -5.63345
2 4 -5.63345
3 4 -5.63345
4 4 -5.63345
5 4 -5.63345
6 4 -5.63345
7 4 -5.63345
8 4 -5.63345
9 4 -5.63345
10 4 -5.63345
11 4 -5.63345
12 4 -5.63345
13 4 -5.63345
14 4 -5.63345
15 4 -5.63345
16 4 -5.63345
17 4 -5.63345
18 4 -5.63345
19 4 -5.63345
20 4 -5.63345
21 4 -5.63345
22 4 -5.63345
23 4 -5.63345
24 4 -5.63345
25 4 -5.63345
26 4 -5.63345
27 4 -5.63345
28 4 -5.63345
29 4 -5.63345
30 4 -5.63345
31 4 -5.63345
32 4 -5.63345
33 4 -5.63345
34 4 -5.63345
35 4 -5.63345
36 4 -5.63345
37 4 -5.63345
38 4 -5.63345
39 4 -5.63345
40 4 -5.63345
41 4 -5.63345
42 4 -5.63345
43 4 -5.63345
44 4 -5.63345
45 4 -5.63345
46 4 -5.63345
47 4 -5.63345
48 4 -5.63345
49 4 -5.63345
50 4 -5.63345
51 4 -5.63345
52 4 -5.63345
53 4 -5.63345
54 4 -5.63345
55 4 -5.63345
56 4 -5.63345
57 4 -5.63345
58 4 -5.63345
59 4 -5.63345
60 4 -5.63345
61 4 -5.63345
62 4 -5.63345
63 4 -5.63345
64 4 -5.63345
65 4 -5.63345
66 4 -5.63345
67 4 -5.63345
68 4 -5.63345
69 4 -5.63345
70 4 -5.63345
71 4 -5.63345
72 4 -5.63345
73 4 -5.63345
74 4 -5.63345
75 4 -5.63345
76 4 -5.63345
77 4 -5.63345
78 4 -5.63345
79 4 -5.63345
80 4 -5.63345
81 4 -5.63345
82 4 -5.63345
83 4 -5.63345
84 4 -5.63345
85 4 -5.63345
86 4 -5.63345
87 4 -5.63345
88 4 -5.63345
89 4 -5.63345
90 4 -5.63345
91 4 -5.63345
92 4 -5.63345
93 4 -5.63345
94 4 -5.63345
95 4 -5.63345
96 4 -5.63345
97 4 -5.63345
98 4 -5.63345
99 4 -5.63345
100 4 -5.63345
101 4 -5.63345
102 4 -5.63345
103 4 -5.63345
104 4 -5.63345
105 4 -5.63345
106 4 -5.63345
107 4 -5.63345
108 4 -5.63345
109 4 -5.63345
110 4 -5.63345
111 4 -5.63345
112 4 -5.63345
113 4 -5.63345
114 4 -5.63345
115 4 -5.63345
116 4 -5.63345
117 4 -5.63345
118 4 -5.63345
119 4 -5.63345
0 5 -5.63345
1 5 -5.63345
2 5 -5.63345
3 5 -5.63345
4 5 -5.63345
5 5 -5.63345
6 5 -5.63345
7 5 -5.63345
8 5 -5.63345
9 5 -5.63345
10 5 -5.63345
11 5 -5.63345
12 5 -5.63345
13 5 -5.63345
14 5 -5.63345
15 5 -5.63345
16 5 -5.63345
17 5 -5.63345
18 5 -5.63345
19 5 -5.63345
20 5 -5.63345
21 5 -5.63345
22 5 -5.63345
23 5 -5.63345
24 5 -5.63345
25 5 -5.63345
26 5 -5.63345
27 5 -5.63345
28 5 -5.63345
29 5 -5.63345
30 5 -5.63345
31 5 -5.63345
32 5 -5.63345
33 5 -5.63345
34 5 -5.63345
35 5 -5.63345
36 5 -5.63345
37 5 -5.63345
38 5 -5.63345
39 5 -5.63345
40 5 -5.63345
41 5 -5.63345
42 5 -5.63345
43 5 -5.63345
44 5 -5.63345
45 5 -5.63345
46 5 -5.63345
47 5 -5.63345
48 5 -5.63345
49 5 -5.63345
50 5 -5.63345
51 5 -5.63345
52 5 -5.63345
53 5 -5.63345
54 5 -5.63345
55 5 -5.63345
56 5 -5.63345
57 5 -5.63345
58 5 -5.63345
59 5 -5.63345
60 5 -5.63345
61 5 -5.63345
62 5 -5.63345
63 5 -5.63345
64 5 -5.63345
65 5 -5.63345
66 5 -5.63345
67 5 -5.63345
68 5 -5.63345
69 5 -5.63345
70 5 -5.63345
71 5 -5.63345
72 5 -5.63345
73 5 -5.63345
74 5 -5.63345
75 5 -5.63345
76 5 -5.63345
77 5 -5.63345
78 5 -5.63345
79 5 -5.63345
80 5 -5.63345
81 5 -5.63345
82 5 -5.63345
83 5 -5.63345
84 5 -5.63345
85 5 -5.63345
86 5 -5.63345
87 5 -5.63345
88 5 -5.63345
89 5 -5.63345
90 5 -5.63345
91 5 -5.63345
92 5 -5.63345
93 5 -5.63345
94 5 -5.63345
95 5 -5.63345
96 5 -5.63345
97 5 -5.63345
98 5 -5.63345
99 5 -5.63345
100 5 -5.63345
101 5 -5.63345
102 5 -5.63345
103 5 -5.63345
104 5 -5.63345
105 5 -5.63345
106 5 -5.63345
107 5 -5.63345
108 5 -5.63345
109 5 -5.63345
110 5 -5.63345
111 5 -5.63345
112 5 -5.63345
113 5 -5.63345
114 5 -5.63345
115 5 -5.63345
116 5 -5.63345
117 5 -5.63345
118 5 -5.63345
119 5 -5.63345
0 6 -5.63345
1 6 -5.63345
2 6 -5.63345
3 6 -5.63345
4 6 -5.63345
5 6 -5.63345
6 6 -5.63345
7 6 -5.63345
8 6 -5.63345
9 6 -5.63345
10 6 -5.63345
11 6 -5.63345
12 6 -5.63345
13 6 -5.63345
14 6 -5.63345
15 6 -5.63345
16 6 -5.63345
17 6 -5.63345
18 6 -5.63345
19 6 -5.63345
20 6 -5.63345
21 6 -5.63345
22 6 -5.63345
23 6 -5.63345
24 6 -5.63345
25 6 -5.63345
26 6 -5.63345
27 6 -5.63345
28 6 -5.63345
29 6 -5.63345
30 6 -5.63345
31 6 -5.63345
32 6 -5.63345
33 6 -5.63345
34 6 -5.63345
35 6 -5.63345
36 6 -5.63345
37 6 -5.63345
38 6 -5.63345
39 6 -5.63345
40 6 -5.63345
41 6 -5.63345
42 6 -5.63345
43 6 -5.63345
44 6 -5.63345
45 6 -5.63345
46 6 -5.63345
47 6 -5.63345
48 6 -5.63345
49 6 -5.63345
50 6 -5.63345
51 6 -5.63345
52 6 -5.63345
53 6 -5.63345
54 6 -5.63345
55 6 -5.63345
56 6 -5.63345
57 6 -5.63345
58 6 -5.63345
59 6 -5.63345
60 6 -5.63345
61 6 -5.63345
62 6 -5.63345
63 6 -5.63345
64 6 -5.63345
65 6 -5.63345
66 6 -5.63345
67 6 -5.63345
68 6 -5.63345
69 6 -5.63345
70 6 -5.63345
71 6 -5.63345
72 6 -5.63345
73 6 -5.63345
74 6 -5.63345
75 6 -5.63345
76 6 -5.63345
77 6 -5.63345
78 6 -5.63345
79 6 -5.63345
80 6 -5.63345
81 6 -5.63345
82 6 -5.63345
83 6 -5.63345
84 6 -5.63345
85 6 -5.63345
86 6 -5.63345
87 6 -5.63345
88 6 -5.63345
89 6 -5.63345
90 6 -5.63345
91 6 -5.63345
92 6 -5.63345
93 6 -5.63345
94 6 -5.63345
95 6 -5.63345
96 6 -5.63345
97 6 -5.63345
98 6 -5.63345
99 6 -5.63345
100 6 -5.63345
101 6 -5.63345
102 6 -5.63345
103 6 -5.63345
104 6 -5.63345
105 6 -5.63345
106 6 -5.63345
107 6 -5.63345
108 6 -5.63345
109 6 -5.63345
110 6 -5.63345
111 6 -5.63345
112 6 -5.63345
113 6 -5.63345
114 6 -5.63345
115 6 -5.63345
116 6 -5.63345
117 6 -5.63345
118 6 -5.63345
119 6 -5.63345
0 7 -5.63345
1 7 -5.63345
2 7 -5.63345
3 7 -5.63345
4 7 -5.63345
5 7 -5.63345
6 7 -5.63345
7 7 -5.63345
8 7 -5.63345
9 7 -5.63345
10 7 -5.63345
11 7 -5.63345
12 7 -5.63345
13 7 -5.63345
14 7 -5.63345
15 7 -5.63345
16 7 -5.63345
17 7 -5.63345
18 7 -5.63345
19 7 -5.63345
20 7 -5.63345
21 7 -5.63345
22 7 -5.63345
23 7 -5.63345
24 7 -5.63345
25 7 -5.63345
26 7 -5.63345
27 7 -5.63345
28 7 -5.63345
29 7 -5.63345
30 7 -5.63345
31 7 -5.63345
32 7 -5.63345
33 7 -5.63345
34 7 -5.63345
35 7 -5.63345
36 7 -5.63345
37 7 -5.63345
38 7 -5.63345
39 7 -5.63345
40 7 -5.63345
41 7 -5.63345
42 7 -5.63345
43 7 -5.63345
44 7 -5.63345
45 7 -5.63345
46 7 -5.63345
47 7 -5.63345
48 7 -5.63345
49 7 -5.63345
50 7 -5.63345
51 7 -5.63345
52 7 -5.63345
53 7 -5.63345
54 7 -5.63345
55 7 -5.63345
56 7 -5.63345
57 7 -5.63345
58 7 -5.63345
59 7 -5.63345
60 7 -5.63345
61 7 -5.63345
62 7 -5.63345
63 7 -5.63345
64 7 -5.63345
65 7 -5.63345
66 7 -5.63345
67 7 -5.63345
68 7 -5.63345
69 7 -5.63345
70 7 -5.63345
71 7 -5.63345
72 7 -5.63345
73 7 -5.63345
74 7 -5.63345
75 7 -5.63345
76 7 -5.63345
77 7 -5.63345
78 7 -5.63345
79 7 -5.63345
80 7 -5.63345
81 7 -5.63345
82 7 -5.63345
83 7 -5.63345
84 7 -5.63345
85 7 -5.63345
86 7 -5.63345
87 7 -5.63345
88 7 -5.63345
89 7 -5.63345
90 7 -5.63345
91 7 -5.63345
92 7 -5.63345
93 7 -5.63345
94 7 -5.63345
95 7 -5.63345
96 7 -5.63345
97 7 -5.63345
98 7 -5.63345
99 7 -5.63345
100 7 -5.63345
101 7 -5.63345
102 7 -5.63345
103 7 -5.63345
104 7 -5.63345
105 7 -5.63345
106 7 -5.63345
107 7 -5.63345
108 7 -5.63345
109 7 -5.63345
110 7 -5.63345
111 7 -5.63345
112 7 -5.63345
113 7 -5.63345
114 7 -5.63345
115 7 -5.63345
116 7 -5.63345
117 7 -5.63345
118 7 -5.63345
119 7 -5.63345
0 8 -5.63345
1 8 -5.63345
2 8 -5.63345
3 8 -5.63345
4 8 -5.63345
5 8 -5.63345
6 8 -5.63345
7 8 -5.63345
8 8 -5.63345
9 8 -5.63345
10 8 -5.63345
11 8 -5.63345
12 8 -5.63345
13 8 -5.63345
14 8 -5.63345
15 8 -5.63345
16 8 -5.63345
17 8 -5.63345
18 8 -5.63345
19 8 -5.63345
20 8 -5.63345
21 8 -5.63345
22 8 -5.63345
23 8 -5.63345
24 8 -5.63345
25 8 -5.63345
26 8 -5.63345
27 8 -5.63345
28 8 -5.63345
29 8 -5.63345
30 8 -5.63345
31 8 -5.63345
32 8 -5.63345
33 8 -5.63345
34 8 -5.63345
35 8 -5.63345
36 8 -5.63345
37 8 -5.63345
38 8 -5.63345
39 8 -5.63345
40 8 -5.63345
41 8 -5.63345
42 8 -5.63345
43 8 -5.63345
44 8 -5.63345
45 8 -5.63345
46 8 -5.63345
47 8 -5.63345
48 8 -5.63345
49 8 -5.63345
50 8 -5.63345
51 8 -5.63345
52 8 -5.63345
53 8 -5.63345
54 8 -5.63345
55 8 -5.63345
56 8 -5.63345
57 8 -5.63345
58 8 -5.63345
59 8 -5.63345
60 8 -5.63345
61 8 -5.63345
62 8 -5.63345
63 8 -5.63345
64 8 -5.63345
65 8 -5.63345
66 8 -5.63345
67 8 -5.63345
68 8 -5.63345
69 8 -5.63345
70 8 -5.63345
71 8 -5.63345
72 8 -5.63345
73 8 -5.63345
74 8 -5.63345
75 8 -5.63345
76 8 -5.63345
77 8 -5.63345
78 8 -5.63345
79 8 -5.63345
80 8 -5.63345
81 8 -5.63345
82 8 -5.63345
83 8 -5.63345
84 8 -5.63345
85 8 -5.63345
86 8 -5.63345
87 8 -5.63345
88 8 -5.63345
89 8 -5.63345
90 8 -5.63345
91 8 -5.63345
92 8 -5.63345
93 8 -5.63345
94 8 -5.63345
95 8 -5.63345
96 8 -5.63345
97 8 -5.63345
98 8 -5.63345
99 8 -5.63345
100 8 -5.63345
101 8 -5.63345
102 8 -5.63345
103 8 -5.63345
104 8 -5.63345
105 8 -5.63345
106 8 -5.63345
107 8 -5.63345
108 8 -5.63345
109 8 -5.63345
110 8 -5.63345
111 8 -5.63345
112 8 -5.63345
113 8 -5.63345
114 8 -5.63345
115 8 -5.63345
116 8 -5.63345
117 8 -5.63345
118 8 -5.63345
119 8 -5.63345
0 9 -5.63345
1 9 -5.63345
2 9 -5.63345
3 9 -5.63345
4 9 -5.63345
5 9 -5.63345
6 9 -5.63345
7 9 -5.63345
8 9 -5.63345
9 9 -5.63345
10 9 -5.63345
11 9 -5.63345
12 9 -5.63345
13 9 -5.63345
14 9 -5.63345
15 9 -5.63345
16 9 -5.63345
17 9 -5.63345
18 9 -5.63345
19 9 -5.63345
20 9 -5.63345
21 9 -5.63345
22 9 -5.63345
23 9 -5.63345
24 9 -5.63345
25 9 -5.63345
26 9 -5.63345
27 9 -5.63345
28 9 -5.63345
29 9 -5.63345
30 9 -5.63345
31 9 -5.63345
32 9 -5.63345
33 9 -5.63345
34 9 -5.63345
35 9 -2.00929e-17
36 9 -4.57617
37 9 -4.61497
38 9 -4.71414
39 9 -3.55018e-19
40 9 -5.03012e-17
41 9 -0.257422
42 9 -0.257422
43 9 -2.82864e-16
44 9 7.32247e-16
45 9 2.46582e-16
46 9 -7.34533e-16
47 9 8.91669e-16
48 9 -1.30035e-15
49 9 -3.18621e-16
50 9 -5.63345
51 9 -5.63345
52 9 -5.63345
53 9 -5.63345
54 9 -5.63345
55 9 -5.63345
56 9 -5.63345
57 9 -5.63345
58 9 -5.63345
59 9 -5.63345
60 9 -5.63345
61 9 -5.63345
62 9 -5.63345
63 9 -5.63345
64 9 -5.63345
65 9 -5.63345
66 9 -5.63345
67 9 -5.63345
68 9 -5.63345
69 9 -5.63345
70 9 -5.63345
71 9 -5.63345
72 9 -5.63345
73 9 -5.63345
74 9 -5.63345
75 9 -5.63345
76 9 -5.63345
77 9 -5.63345
78 9 -5.63345
79 9 -5.63345
80 9 -5.63345
81 9 -5.63345
82 9 -5.63345
83 9 -5.63345
84 9 -5.63345
85 9 -5.63345
86 9 -5.63345
87 9 -5.63345
88 9 -5.63345
89 9 -5.63345
90 9 -5.63345
91 9 -5.63345
92 9 -5.63345
93 9 -5.63345
94 9 -5.63345
95 9 -5.63345
96 9 -5.63345
97 9 -5.63345
98 9 -5.63345
99 9 -5.63345
100 9 -5.63345
101 9 -5.63345
102 9 -5.63345
103 9 -5.63345
104 9 -5.63345
105 9 -5.63345
106 9 -5.63345
107 9 -5.63345
108 9 -5.63345
109 9 -5.63345
110 9 -5.63345
111 9 -5.63345
112 9 -5.63345
113 9 -5.63345
114 9 -5.63345
115 9 -5.63345
116 9 -5.63345
117 9 -5.63345
118 9 -5.63345
119 9 -5.63345
0 10 -5.63345
1 10 -5.63345
2 10 -5.63345
3 10 -5.63345
4 10 -5.63345
5 10 -5.63345
6 10 -5.63345
7 10 -5.63345
8 10 -5.63345
9 10 -5.63345
10 10 -5.63345
11 10 -5.63345
12 10 -5.63345
13 10 -5.63345
14 10 -5.63345
15 10 -5.63345
16 10 -5.63345
17 10 -5.63345
18 10 -5.63345
19 10 -5.63345
20 10 -5.63345
21 10 -5.63345
22 10 -5.63345
23 10 -5.63345
24 10 -5.63345
25 10 -5.63345
26 10 -5.63345
27 10 -5.63345
28 10 -5.63345
29 10 -5.63345
30 10 -5.63345
31 10 1.73433e-17
32 10 1.8425e-17
33 10 -1.71173e-17
34 10 -9.65913e-18
35 10 2.33148e-17
36 10 -4.29331e-17
37 10 5.67322e-18
38 10 -2.54221e-17
39 10 1.03213e-17
40 10 9.64143e-18
41 10 -1.76513e-17
42 10 1.24554e-17
43 10 9.49998e-18
44 10 -5.32916e-18
45 10 1.68641e-18
46 10 3.62033e-18
47 10 -1.01994e-17
48 10 -1.22036e-18
49 10 1.90418e-17
50 10 2.84993e-17
51 10 -1.06547e-18
52 10 -1.73798e-17
53 10 2.52342e-17
54 10 3.05273e-18
55 10 -5.63345
56 10 -5.63345
57 10 -5.63345
58 10 -5.63345
59 10 -5.63345
60 10 -5.63345
61 10 -5.63345
62 10 -5.63345
63 10 -5.63345
64 10 -5.63345
65 10 -5.63345
66 10 -5.63345
67 10 -5.63345
68 10 -5.63345
69 10 -5.63345
70 10 -5.63345
71 10 -5.63345
72 10 -5.63345
73 10 3.83266
74 10 3.46996
75 10 3.49992
76 10 3.56079
77 10 3.55673
78 10 -5.63345
79 10 -5.63345
80 10 -5.63345
81 10 -5.63345
82 10 -5.63345
83 10 -5.63345
84 10 -5.63345
85 10 -5.63345
86 10 -5.63345
87 10 -5.63345
88 10 -5.63345
89 10 -5.63345
90 10 -5.63345
91 10 -5.63345
92 10 -5.63345
93 10 -5.63345
94 10 -5.63345
95 10 -5.63345
96 10 -5.63345
97 10 -5.63345
98 10 -5.63345
99 10 -5.63345
100 10 -5.63345
101 10 -5.63345
102 10 -5.63345
103 10 -5.63345
104 10 -5.63345
105 10 -5.63345
106 10 -5.63345
107 10 -5.63345
108 10 -5.63345
109 10 -5.63345
110 10 -5.63345
111 10 -5.63345
112 10 -5.63345
113 10 -5.63345
114 10 -5.63345
115 10 -5.63345
116 10 -5.63345
117 10 -5.63345
118 10 -5.63345
119 10 -5.63345
0 11 -5.63345
1 11 -5.63345
2 11 -5.63345
3 11 -5.63345
4 11 -5.63345
5 11 -5.63345
6 11 -5.63345
7 11 -5.63345
8 11 -5.63345
9 11 -5.63345
10 11 -5.63345
11 11 -5.63345
12 11 -5.63345
13 11 -5.63345
14 11 -5.63345
15 11 -5.63345
16 11 -5.63345
17 11 -5.63345
18 11 -5.63345
19 11 -5.63345
20 11 -5.63345
21 11 -5.63345
22 11 -5.63345
23 11 -5.63345
24 11 -5.63345
25 11 -5.63345
26 11 -5.63345
27 11 -5.63345
28 11 -5.63345
29 11 4.31039e-18
30 11 -4.66859
31 11 -4.60096
32 11 -4.29915
33 11 3.91642e-17
34 11 -5.63345
35 11 -5.63345
36 11 -5.63345
37 11 -1.91384e-18
38 11 -5.63345
39 11 -5.63345
40 11 -5.63345
41 11 -2.03382e-17
42 11 -9.39479e-18
43 11 -5.63345
44 11 -5.63345
45 11 -5.63345
46 11 1.65175e-17
47 11 -0.85999
48 11 -1.1015
49 11 -1.18315
50 11 1.09169e-17
51 11 -0.365839
52 11 -0.963285
53 11 -0.966119
54 11 -9.90817e-19
55 11 -5.63345
56 11 -5.63345
57 11 -5.63345
58 11 -5.63345
59 11 -5.63345
60 11 -5.63345
61 11 -5.63345
62 11 -5.63345
63 11 -5.63345
64 11 -5.63345
65 11 -5.63345
66 11 -5.63345
67 11 -5.63345
68 11 -5.63345
69 11 -5.63345
70 11 -5.63345
71 11 1.32347e-17
72 11 -1.91146e-17
73 11 -2.8984e-17
74 11 5.23777e-18
75 11 3.04758e-18
76 11 1.2002e-17
77 11 -4.19518e-18
78 11 -1.14179e-17
79 11 -5.63345
80 11 -5.63345
81 11 -5.63345
82 11 -5.63345
83 11 -5.63345
84 11 -5.63345
85 11 -5.63345
86 11 -5.63345
87 11 -5.63345
88 11 -5.63345
89 11 -5.63345
90 11 -5.63345
91 11 -5.63345
92 11 -5.63345
93 11 -5.63345
94 11 -5.63345
95 11 -5.63345
96 11 -5.63345
97 11 -5.63345
98 11 -5.63345
99 11 -5.63345
100 11 -5.63345
101 11 -5.63345
102 11 -5.63345
103 11 -5.63345
104 11 -5.63345
105 11 -5.63345
106 11 -5.63345
107 11 -5.63345
108 11 -5.63345
109 11 -5.63345
110 11 -5.63345
111 11 -5.63345
112 11 -5.63345
113 11 -5.63345
114 11 -5.63345
115 11 -5.63345
116 11 -5.63345
117 11 -5.63345
118 11 -5.63345
119 11 -5.63345
0 12 -5.63345
1 12 -5.63345
2 12 -5.63345
3 12 -5.63345
4 12 -5.63345
5 12 -5.63345
6 12 -5.63345
7 12 -5.63345
8 12 -5.63345
9 12 -5.63345
10 12 -5.63345
11 12 -5.63345
12 12 -5.63345
13 12 -5.63345
14 12 -5.63345
15 12 -5.63345
16 12 -5.63345
17 12 -5.63345
18 12 -5.63345
19 12 -5.63345
20 12 -5.63345
21 12 -5.63345
22 12 -5.63345
23 12 -5.63345
24 12 -5.63345
25 12 -5.63345
26 12 -5.63345
27 12 -1.3064e-17
28 12 1.519e-18
29 12 1.24799e-17
30 12 2.73732e-18
31 12 2.34744e-17
32 12 -6.8592e-18
33 12 2.37362e-17
34 12 -1.37306e-17
35 12 1.63008e-18
36 12 -1.5225e-17
37 12 -5.03967e-18
38 12 -1.67624e-17
39 12 -1.99779e-17
40 12 -7.14422e-18
41 12 -9.47666e-18
42 12 -5.95832e-18
43 12 1.02776e-17
44 12 -3.81903e-19
45 12 -9.83975e-18
46 12 -2.15829e-17
47 12 -5.05711e-18
48 12 -3.47959e-19
49 12 -1.1477e-17
50 12 1.29129e-18
51 12 2.49509e-17
52 12 2.92181e-17
53 12 1.80026e-17
54 12 8.14469e-18
55 12 -2.51765e-17
56 12 2.34711e-17
57 12 1.58192e-17
58 12 -4.36187e-17
59 12 -4.22142e-18
60 12 -5.63345
61 12 -5.63345
62 12 -5.63345
63 12 -5.63345
64 12 -5.63345
65 12 -5.63345
66 12 -5.63345
67 12 -5.63345
68 12 -5.63345
69 12 -6.76432e-18
70 12 -2.32325e-18
71 12 2.08262e-18
72 12 -1.41964e-18
73 12 -3.90981e-17
74 12 -2.22681e-17
75 12 -2.60812e-17
76 12 8.9634e-18
77 12 -7.54494e-18
78 12 -7.27729e-18
79 12 -1.72715e-17
80 12 4.59636e-17
81 12 -5.63345
82 12 -5.63345
83 12 -5.63345
84 12 -5.63345
85 12 -5.63345
86 12 -5.63345
87 12 -5.63345
88 12 -5.63345
89 12 -5.63345
90 12 -5.63345
91 12 -5.63345
92 12 -5.63345
93 12 -5.63345
94 12 -5.63345
95 12 -5.63345
96 12 -5.63345
97 12 -5.63345
98 12 -5.63345
99 12 -5.63345
100 12 -5.63345
101 12 -5.63345
102 12 -5.63345
103 12 -5.63345
104 12 -5.63345
105 12 -5.63345
106 12 -5.63345
107 12 -5.63345
108 12 -5.63345
109 12 -5.63345
110 12 -5.63345
111 12 -5.63345
112 12 -5.63345
113 12 -5.63345
114 12 -5.63345
115 12 -5.63345
116 12 -5.63345
117 12 -5.63345
118 12 -5.63345
119 12 -5.63345
0 13 -5.63345
1 13 -5.63345
2 13 -5.63345
3 13 -5.63345
4 13 -5.63345
5 13 -5.63345
6 13 -5.63345
7 13 -5.63345
8 13 -5.63345
9 13 -5.63345
10 13 -5.63345
11 13 -5.63345
12 13 -5.63345
13 13 -5.63345
14 13 -5.63345
15 13 -5.63345
16 13 -5.63345
17 13 -5.63345
18 13 -5.63345
19 13 -5.63345
20 13 -5.63345
21 13 -5.63345
22 13 -5.63345
23 13 -5.63345
24 13 -5.63345
25 13 -5.63345
26 13 1.72367
27 13 9.38953e-18
28 13 1.89089
29 13 1.64305
30 13 -0.824335
31 13 5.35506e-18
32 13 -5.63345
33 13 -5.63345
34 13 -5.63345
35 13 -1.51167e-17
36 13 -9.29663e-18
37 13 -5.63345
38 13 -5.63345
39 13 -2.89974e-17
40 13 1.05818e-17
41 13 -5.63345
42 13 -5.63345
43 13 7.27142e-18
44 13 1.35097e-17
45 13 -5.63345
46 13 -5.63345
47 13 3.08618e-18
48 13 1.33306e-17
49 13 -5.63345
50 13 -5.63345
51 13 -5.63345
52 13 1.98913e-18
53 13 -4.46369e-18
54 13 6.07335
55 13 6.17856
56 13 -1.67143e-18
57 13 -7.3225e-18
58 13 -5.21141
59 13 -5.15771
60 13 -4.77115
61 13 -1.14941e-17
62 13 -5.63345
63 13 -5.63345
64 13 -5.63345
65 13 -5.63345
66 13 -5.63345
67 13 -5.63345
68 13 -5.63345
69 13 -1.19997e-17
70 13 1.27731e-18
71 13 -5.63345
72 13 -5.63345
73 13 -5.63345
74 13 1.34731e-17
75 13 -1.23491
76 13 -1.58805
77 13 -1.61296
78 13 -2.12019e-17
79 13 -0.377419
80 13 -1.01178
81 13 -1.01251
82 13 -3.46984e-17
83 13 -5.63345
84 13 -5.63345
85 13 -5.63345
86 13 -5.63345
87 13 -5.63345
88 13 -5.63345
89 13 -5.63345
90 13 -5.63345
91 13 -5.63345
92 13 -5.63345
93 13 -5.63345
94 13 -5.63345
95 13 -5.63345
96 13 -5.63345
97 13 -5.63345
98 13 -5.63345
99 13 -5.63345
100 13 -5.63345
101 13 -5.63345
102 13 -5.63345
103 13 -5.63345
104 13 -5.63345
105 13 -5.63345
106 13 -5.63345
107 13 -5.63345
108 13 -5.63345
109 13 -5.63345
110 13 -5.63345
111 13 -5.63345
112 13 -5.63345
113 13 -5.63345
114 13 -5.63345
115 13 -5.63345
116 13 -5.63345
117 13 -5.63345
118 13 -5.63345
119 13 -5.63345
0 14 -5.63345
1 14 -5.63345
2 14 -5.63345
3 14 -5.63345
4 14 -5.63345
5 14 -5.63345
6 14 -5.63345
7 14 -5.63345
8 14 -5.63345
9 14 -5.63345
10 14 -5.63345
11 14 -5.63345
12 14 -5.63345
13 14 -5.63345
14 14 -5.63345
15 14 -5.63345
16 14 -5.63345
17 14 -5.63345
18 14 -5.63345
19 14 -5.63345
20 14 -5.63345
21 14 -5.63345
22 14 -5.63345
23 14 -5.63345
24 14 -5.63345
25 14 -5.63345
26 14 -8.01821e-19
27 14 -4.19663e-19
28 14 3.46041e-18
29 14 2.81582e-18
30 14 6.93657e-18
31 14 1.61941e-18
32 14 -2.07971e-17
33 14 -4.01251e-18
34 14 -2.67966e-18
35 14 7.05173e-19
36 14 -1.28576e-18
37 14 9.59997e-18
38 14 -1.20775e-18
39 14 -7.13613e-19
40 14 -4.87027e-18
41 14 -3.06583e-18
42 14 2.97645e-17
43 14 3.03771e-18
44 14 1.03973e-17
45 14 7.86036e-18
46 14 -1.36857e-17
47 14 2.34805e-19
48 14 1.7682e-17
49 14 6.7718e-18
50 14 1.03843e-17
51 14 1.64778e-18
52 14 -1.37865e-18
53 14 2.33369e-18
54 14 -2.13814e-18
55 14 -8.47042e-18
56 14 3.01509e-17
57 14 9.0979e-18
58 14 -2.20956e-19
59 14 -1.67864e-17
60 14 -6.9561e-18
61 14 9.14548e-19
62 14 -2.73411e-18
63 14 1.32228e-17
64 14 -5.63345
65 14 -5.63345
66 14 -4.10365e-17
67 14 -1.96541e-17
68 14 1.7402e-17
69 14 -1.0209e-17
70 14 7.48617e-18
71 14 -1.7004e-18
72 14 -2.45267e-18
73 14 1.2962e-17
74 14 -1.75488e-17
75 14 2.56188e-17
76 14 -2.90446e-18
77 14 1.33705e-17
78 14 9.77122e-18
79 14 3.07915e-19
80 14 4.56801e-18
81 14 1.99159e-17
82 14 4.37662e-18
83 14 -3.47568e-18
84 14 -5.63345
85 14 -5.63345
86 14 -5.63345
87 14 -5.63345
88 14 -5.63345
89 14 -5.63345
90 14 -5.63345
91 14 -5.63345
92 14 -5.63345
93 14 -5.63345
94 14 -5.63345
95 14 -5.63345
96 14 -5.63345
97 14 -5.63345
98 14 -5.63345
99 14 -5.63345
100 14 -5.63345
101 14 -5.63345
102 14 -5.63345
103 14 -5.63345
104 14 -5.63345
105 14 -5.63345
106 14 -5.63345
107 14 -5.63345
108 14 -5.63345
109 14 -5.63345
110 14 -5.63345
111 14 -5.63345
112 14 -5.63345
113 14 -5.63345
114 14 -5.63345
115 14 -5.63345
116 14 -5.63345
117 14 -5.63345
118 14 -5.63345
119 14 -5.63345
0 15 -5.63345
1 15 -5.63345
2 15 -5.63345
3 15 -5.63345
4 15 -5.63345
5 15 -5.63345
6 15 -5.63345
7 15 -5.63345
8 15 -5.63345
9 15 -5.63345
10 15 -5.63345
11 15 -5.63345
12 15 -5.63345
13 15 -5.63345
14 15 -5.63345
15 15 -5.63345
16 15 -5.63345
17 15 -5.63345
18 15 -5.63345
19 15 -5.63345
20 15 -5.63345
21 15 -5.63345
22 15 -5.63345
23 15 -5.63345
24 15 -5.63345
25 15 -5.63345
26 15 -5.63345
27 15 -5.63345
28 15 -2.14576e-18
29 15 3.20456e-18
30 15 -2.1293
31 15 -1.7916
32 15 -1.73473
33 15 -1.89451e-18
34 15 0.471161
35 15 0.700576
36 15 0.516492
37 15 -1.56596
38 15 1.28605
39 15 2.45134
40 15 2.86835
41 15 2.83966
42 15 2.28295
43 15 3.11179
44 15 3.42107
45 15 3.50948
46 15 6.86858e-20
47 15 3.82019
48 15 3.78733
49 15 3.37389
50 15 1.90703
51 15 0.368401
52 15 0.0441193
53 15 -0.158732
54 15 -3.35119
55 15 -2.16318e-18
56 15 1.63724
57 15 1.65244
58 15 -1.73656
59 15 1.68544e-19
60 15 -5.63345
61 15 -5.63345
62 15 -5.63345
63 15 -4.71126e-18
64 15 -5.63345
65 15 -5.63345
66 15 -5.63345
67 15 7.21419e-18
68 15 4.94481e-18
69 15 -5.63345
70 15 -5.63345
71 15 4.61461e-19
72 15 3.38926e-18
73 15 -5.63345
74 15 -5.63345
75 15 9.88767e-18
76 15 3.02648e-18
77 15 -5.63345
78 15 -5.63345
79 15 -5.63345
80 15 1.14599e-17
81 15 1.51491e-18
82 15 5.71901
83 15 5.83531
84 15 3.16932e-18
85 15 -2.05584e-18
86 15 -5.63345
87 15 -5.63345
88 15 -5.63345
89 15 -5.63345
90 15 -5.63345
91 15 -5.63345
92 15 -5.63345
93 15 -5.63345
94 15 -5.63345
95 15 -5.63345
96 15 -5.63345
97 15 -5.63345
98 15 -5.63345
99 15 -5.63345
100 15 -5.63345
101 15 -5.63345
102 15 -5.63345
103 15 -5.63345
104 15 -5.63345
105 15 -5.63345
106 15 -5.63345
107 15 -5.63345
108 15 -5.63345
109 15 -5.63345
110 15 -5.63345
111 15 -5.63345
112 15 -5.63345
113 15 -5.63345
114 15 -5.63345
115 15 -5.63345
116 15 -5.63345
117 15 -5.63345
118 15 -5.63345
119 15 -5.63345
0 16 -5.63345
1 16 -5.63345
2 16 -5.63345
3 16 -5.63345
4 16 -5.63345
5 16 -5.63345
6 16 -5.63345
7 16 -5.63345
8 16 -5.63345
9 16 -5.63345
10 16 -5.63345
11 16 -5.63345
12 16 -5.63345
13 16 -5.63345
14 16 -5.63345
15 16 -5.63345
16 16 -5.63345
17 16 -5.63345
18 16 -5.63345
19 16 -5.63345
20 16 -5.63345
21 16 -5.63345
22 16 -5.63345
23 16 -5.63345
24 16 -5.63345
25 16 -5.63345
26 16 -1.01988e-18
27 16 -1.21789e-18
28 16 -3.8186
29 16 -3.66818
30 16 -4.07266
31 16 2.23977e-18
32 16 -2.61605e-18
33 16 -3.92516e-18
34 16 -7.08939e-18
35 16 -7.11047e-19
36 16 -1.84007e-19
37 16 -1.40377e-18
38 16 -6.98237e-19
39 16 1.25839e-18
40 16 3.05517e-19
41 16 1.02497e-18
42 16 -4.01319e-18
43 16 -5.25728e-18
44 16 5.49505e-18
45 16 3.26378e-18
46 16 -2.2176e-18
47 16 -8.78493e-19
48 16 2.07923e-19
49 16 2.08334e-18
50 16 -1.04882e-17
51 16 2.27796e-18
52 16 -1.51926e-18
53 16 -2.26497e-19
54 16 -6.11837e-18
55 16 1.48011e-18
56 16 2.33656e-19
57 16 2.23583e-18
58 16 5.03241e-18
59 16 3.6492e-18
60 16 7.81346e-19
61 16 -4.45453e-18
62 16 -2.23415e-18
63 16 4.72843e-18
64 16 5.74617e-19
65 16 -3.0758e-18
66 16 4.84021e-19
67 16 4.11834e-18
68 16 5.00378e-19
69 16 -2.38601e-19
70 16 -3.52716e-18
71 16 5.03489e-18
72 16 -2.30387e-18
73 16 3.01253e-18
74 16 6.1626e-18
75 16 -1.16088e-17
76 16 2.75253e-19
77 16 -5.07357e-19
78 16 -2.38427e-18
79 16 1.11159e-18
80 16 9.44401e-18
81 16 -5.12713e-18
82 16 3.48203e-18
83 16 2.13106e-18
84 16 -3.43683e-18
85 16 -1.1782e-17
86 16 2.36507e-18
87 16 -3.35836e-18
88 16 3.3339e-18
89 16 -8.14287e-18
90 16 1.20958e-18
91 16 1.87489e-18
92 16 -5.63345
93 16 -5.63345
94 16 -5.63345
95 16 -5.63345
96 16 -5.63345
97 16 -5.63345
98 16 -5.63345
99 16 -5.63345
100 16 -5.63345
101 16 -5.63345
102 16 -5.63345
103 16 -5.63345
104 16 -5.63345
105 16 -5.63345
106 16 -5.63345
107 16 -5.63345
108 16 -5.63345
109 16 -5.63345
110 16 -5.63345
111 16 -5.63345
112 16 -5.63345
113 16 -5.63345
114 16 -5.63345
115 16 -5.63345
116 16 -5.63345
117 16 -5.63345
118 16 -5.63345
119 16 -5.63345
0 17 -5.63345
1 17 -5.63345
2 17 -5.63345
3 17 -5.63345
4 17 -5.63345
5 17 -5.63345
6 17 -5.63345
7 17 -5.63345
8 17 -5.63345
9 17 -5.63345
10 17 -5.63345
11 17 -5.63345
12 17 -5.63345
13 17 -5.63345
14 17 -5.63345
15 17 -5.63345
16 17 -5.63345
17 17 -5.63345
18 17 -5.63345
19 17 -5.63345
20 17 -5.63345
21 17 -5.63345
22 17 -5.63345
23 17 -5.63345
24 17 -5.63345
25 17 2.2671e-18
26 17 5.93938e-18
27 17 -2.23855e-19
28 17 6.78708e-20
29 17 3.98832e-18
30 17 4.85913e-19
31 17 -6.23363e-19
32 17 5.59331e-18
33 17 2.77209e-18
34 17 -1.01191e-18
35 17 -4.449e-18
36 17 4.07293e-19
37 17 2.66167e-18
38 17 1.30753e-18
39 17 1.37607e-18
40 17 -1.40316e-18
41 17 3.12194e-18
42 17 1.43442e-18
43 17 4.63374e-18
44 17 3.76298e-18
45 17 -1.01033e-19
46 17 -2.52457e-18
47 17 -1.13921e-18
48 17 -1.3641e-18
49 17 -4.37661e-18
50 17 -5.63345
51 17 0.444597
52 17 3.13743e-18
53 17 -4.53389e-18
54 17 -5.63345
55 17 -5.63345
56 17 5.86332e-19
57 17 1.39157e-19
58 17 -2.17993
59 17 -1.8646
60 17 -1.76374
61 17 -2.00573e-18
62 17 0.161413
63 17 0.377449
64 17 0.184887
65 17 -0.690535
66 17 2.27302
67 17 2.66596
68 17 3.00736
69 17 2.93495
70 17 1.72623
71 17 3.04781
72 17 3.50022
73 17 3.54374
74 17 1.22561e-18
75 17 4.09124
76 17 4.11909
77 17 3.91979
78 17 9.79322e-19
79 17 0.158904
80 17 -0.249409
81 17 -0.501911
82 17 -1.92655
83 17 2.9219e-18
84 17 1.13936
85 17 0.869447
86 17 -0.433554
87 17 8.10868e-19
88 17 -5.63345
89 17 -5.63345
90 17 -1.52621e-18
91 17 1.41054e-18
92 17 -5.63345
93 17 -5.63345
94 17 -5.63345
95 17 -2.18506e-18
96 17 3.57656e-18
97 17 -5.63345
98 17 -5.63345
99 17 1.32303e-18
100 17 4.77406e-18
101 17 -5.63345
102 17 -5.63345
103 17 -5.63345
104 17 -5.63345
105 17 -5.63345
106 17 -5.63345
107 17 -5.63345
108 17 -5.63345
109 17 -5.63345
110 17 -5.63345
111 17 -5.63345
112 17 -5.63345
113 17 -5.63345
114 17 -5.63345
115 17 -5.63345
116 17 -5.63345
117 17 -5.63345
118 17 -5.63345
119 17 -5.63345
0 18 -5.63345
1 18 -5.63345
2 18 -5.63345
3 18 -5.63345
4 18 -5.63345
5 18 -5.63345
6 18 -5.63345
7 18 -5.63345
8 18 -5.63345
9 18 -5.63345
10 18 -5.63345
11 18 -5.63345
12 18 -5.63345
13 18 -5.63345
14 18 -5.63345
15 18 -5.63345
16 18 -5.63345
17 18 -5.63345
18 18 -5.63345
19 18 -5.63345
20 18 -5.63345
21 18 -5.63345
22 18 -5.63345
23 18 -5.63345
24 18 -5.63345
25 18 -7.30351e-19
26 18 -5.63345
27 18 -5.63345
28 18 -5.63345
29 18 -7.47598e-19
30 18 -5.63345
31 18 -5.63345
32 18 -5.63345
33 18 5.72689e-19
34 18 -5.63345
35 18 -5.63345
36 18 -5.63345
37 18 3.27313e-19
38 18 1.35658e-18
39 18 -2.98255
40 18 -3.51478
41 18 -3.41435
42 18 -1.28844e-18
43 18 -0.844596
44 18 -1.39061
45 18 -1.39488
46 18 7.06474e-19
47 18 -5.63345
48 18 -5.63345
49 18 -5.63345
50 18 2.19476e-18
51 18 -9.09633e-19
52 18 -5.43757
53 18 -5.28973
54 18 -2.47016e-19
55 18 -8.65567e-19
56 18 -3.86948
57 18 -3.71331
58 18 -4.2044
59 18 -5.24542e-18
60 18 1.29933e-18
61 18 -1.86698e-18
62 18 -2.70483e-18
63 18 1.44205e-18
64 18 -2.64212e-19
65 18 2.65139e-18
66 18 8.2447e-19
67 18 3.92728e-19
68 18 5.05709e-19
69 18 -4.83725e-18
70 18 -1.0996e-18
71 18 -2.82706e-18
72 18 2.21493e-18
73 18 -7.94594e-19
74 18 -1.19822e-18
75 18 -2.69127e-19
76 18 1.21227e-18
77 18 4.0654e-19
78 18 9.90243e-19
79 18 -9.203e-20
80 18 -1.51245e-18
81 18 -2.56136e-21
82 18 -1.24938e-18
83 18 2.5737e-18
84 18 1.52022e-18
85 18 1.97457e-18
86 18 -1.58385e-18
87 18 1.74478e-20
88 18 -3.38814e-18
89 18 1.74523e-18
90 18 -1.32877e-18
91 18 1.65283e-19
92 18 -1.6695e-18
93 18 -3.12156e-18
94 18 -4.14719e-19
95 18 9.7324e-19
96 18 -1.68664e-18
97 18 -4.28101e-18
98 18 -2.37671e-18
99 18 2.67068e-19
100 18 -2.00014e-19
101 18 -3.56111e-19
102 18 -3.99202e-19
103 18 -1.06057e-18
104 18 -5.63345
105 18 -5.63345
106 18 -5.63345
107 18 -5.63345
108 18 -5.63345
109 18 -5.63345
110 18 -5.63345
111 18 -5.63345
112 18 -5.63345
113 18 -5.63345
114 18 -5.63345
115 18 -5.63345
116 18 -5.63345
117 18 -5.63345
118 18 -5.63345
119 18 -5.63345
0 19 -5.63345
1 19 -5.63345
2 19 -5.63345
3 19 -5.63345
4 19 -5.63345
5 19 -5.63345
6 19 -5.63345
7 19 -5.63345
8 19 -5.63345
9 19 -5.63345
10 19 -5.63345
11 19 -5.63345
12 19 -5.63345
13 19 -5.63345
14 19 -5.63345
15 19 -5.63345
16 19 -5.63345
17 19 -5.63345
18 19 -5.63345
19 19 -5.63345
20 19 -5.63345
21 19 -5.63345
22 19 -5.63345
23 19 -5.63345
24 19 -5.63345
25 19 6.32514e-29
26 19 -4.9936e-29
27 19 -1.24747e-28
28 19 4.4359e-29
29 19 -1.68036e-29
30 19 -9.91881e-29
31 19 4.40217e-29
32 19 1.1143e-28
33 19 9.14706e-29
34 19 1.62767e-28
35 19 1.30578e-28
36 19 -1.41796e-28
37 19 2.0638e-28
38 19 5.35782e-29
39 19 1.36654e-28
40 19 -2.16819e-29
41 19 -2.38258e-28
42 19 1.32555e-28
43 19 1.13149e-28
44 19 -1.75654e-28
45 19 1.5411e-28
46 19 -8.8356e-29
47 19 -1.29109e-29
48 19 2.21596e-28
49 19 -1.04682e-28
50 19 -2.40075e-28
51 19 1.66179e-28
52 19 -9.11698e-29
53 19 -3.73335e-30
54 19 -7.51928e-29
55 19 1.38203e-28
56 19 1.49602e-29
57 19 1.32877e-28
58 19 -1.24293e-29
59 19 6.03103e-29
60 19 1.31995e-28
61 19 8.28872e-29
62 19 8.97177e-29
63 19 2.46366e-29
64 19 2.92778e-28
65 19 -2.01935e-28
66 19 4.1012e-29
67 19 -2.82509e-29
68 19 -4.01749e-28
69 19 1.28751e-28
70 19 -2.87695e-28
71 19 -3.65832e-30
72 19 2.6744e-28
73 19 4.27684e-28
74 19 -2.76352e-29
75 19 -2.43452e-28
76 19 -2.04007e-28
77 19 2.98835e-28
78 19 -0.7217
79 19 4.95473
80 19 1.11477e-28
81 19 -1.76696e-28
82 19 -5.63345
83 19 -5.63345
84 19 3.27893e-28
85 19 1.88013e-28
86 19 -2.31593
87 19 -2.02773
88 19 -1.84796
89 19 6.09424e-28
90 19 0.0251339
91 19 0.266969
92 19 0.343378
93 19 -3.31278e-28
94 19 2.81209
95 19 3.09132
96 19 3.46169
97 19 3.80533
98 19 3.81597
99 19 3.72234
100 19 3.81577
101 19 3.70724
102 19 2.03694e-27
103 19 4.17545
104 19 -5.63345
105 19 -5.63345
106 19 -5.63345
107 19 -5.63345
108 19 -5.63345
109 19 -5.63345
110 19 -5.63345
111 19 -5.63345
112 19 -5.63345
113 19 -5.63345
114 19 -5.63345
115 19 -5.63345
116 19 -5.63345
117 19 -5.63345
118 19 -5.63345
119 19 -5.63345
0 20 -5.63345
1 20 -5.63345
2 20 -5.63345
3 20 -5.63345
4 20 -5.63345
5 20 -5.63345
6 20 -5.63345
7 20 -5.63345
8 20 -5.63345
9 20 -5.63345
10 20 -5.63345
11 20 -5.63345
12 20 -5.63345
13 20 -5.63345
14 20 -5.63345
15 20 -5.63345
16 20 -5.63345
17 20 -5.63345
18 20 -5.63345
19 20 -5.63345
20 20 -5.63345
21 20 -5.63345
22 20 -5.63345
23 20 -5.63345
24 20 -5.63345
25 20 -5.63345
26 20 1.57994e-28
27 20 8.79581e-29
28 20 -5.63345
29 20 -5.63345
30 20 -5.63345
31 20 1.19297e-28
32 20 2.8712e-29
33 20 -5.63345
34 20 -5.63345
35 20 7.1415e-30
36 20 -1.06012e-28
37 20 -5.63345
38 20 -5.63345
39 20 -1.15719e-28
40 20 -8.68432e-29
41 20 -5.63345
42 20 -5.63345
43 20 -5.63345
44 20 -3.79517e-29
45 20 2.85451
46 20 4.06081
47 20 4.71308
48 20 -3.8164e-29
49 20 -4.93694e-29
50 20 -5.54255
51 20 -5.50419
52 20 -1.24844e-28
53 20 2.33894e-29
54 20 -5.63345
55 20 -5.63345
56 20 -5.63345
57 20 -6.09704e-29
58 20 -5.63345
59 20 -5.63345
60 20 -5.63345
61 20 1.03634e-28
62 20 -5.63345
63 20 -5.63345
64 20 -5.63345
65 20 4.59018e-29
66 20 6.34345e-29
67 20 -3.69195
68 20 -4.16427
69 20 -4.20976
70 20 -8.19437e-29
71 20 -1.07719
72 20 -1.5913
73 20 -1.58552
74 20 3.11852e-29
75 20 -5.63345
76 20 -5.56751
77 20 -5.49842
78 20 2.69076e-29
79 20 -6.06848e-29
80 20 -5.44836
81 20 -5.29951
82 20 6.89116e-29
83 20 4.71714e-30
84 20 -3.98608
85 20 -3.85294
86 20 -4.44999
87 20 -1.29847e-30
88 20 1.02946e-28
89 20 9.89029e-29
90 20 -3.13177e-28
91 20 -1.3536e-28
92 20 1.14545e-28
93 20 1.63263e-28
94 20 -3.38093e-29
95 20 -1.26709e-28
96 20 -7.82471e-29
97 20 6.52771e-29
98 20 -1.53593e-28
99 20 -2.5103e-29
100 20 1.16383e-28
101 20 -1.3748e-28
102 20 -5.96099e-29
103 20 -5.12003e-29
104 20 -5.63345
105 20 -5.63345
106 20 -5.63345
107 20 -5.63345
108 20 -5.63345
109 20 -5.63345
110 20 -5.63345
111 20 -5.63345
112 20 -5.63345
113 20 -5.63345
114 20 -5.63345
115 20 -5.63345
116 20 -5.63345
117 20 -5.63345
118 20 -5.63345
119 20 -5.63345
0 21 -5.63345
1 21 -5.63345
2 21 -5.63345
3 21 -5.63345
4 21 -5.63345
5 21 -5.63345
6 21 -5.63345
7 21 -5.63345
8 21 -5.63345
9 21 -5.63345
10 21 -5.63345
11 21 -5.63345
12 21 -5.63345
13 21 -5.63345
14 21 -5.63345
15 21 -5.63345
16 21 -5.63345
17 21 -5.63345
18 21 -5.63345
19 21 -5.63345
20 21 -5.63345
21 21 -5.63345
22 21 -5.63345
23 21 -5.63345
24 21 -5.63345
25 21 3.57272e-29
26 21 -4.52422e-29
27 21 -9.22974e-29
28 21 5.0873e-30
29 21 5.36632e-29
30 21 8.51356e-29
31 21 5.2441e-29
32 21 5.30435e-29
33 21 3.7483e-29
34 21 4.20619e-29
35 21 4.1101e-29
36 21 -5.97354e-30
37 21 3.45117e-29
38 21 2.31083e-30
39 21 -3.31061e-29
40 21 -2.21796e-29
41 21 -2.69737e-29
42 21 1.19319e-29
43 21 -2.25114e-29
44 21 -3.06032e-29
45 21 1.18266e-29
46 21 -3.14638e-30
47 21 6.25343e-29
48 21 -2.26934e-29
49 21 -1.20724e-29
50 21 4.98107e-29
51 21 -3.75007e-29
52 21 -3.03485e-29
53 21 2.5801e-30
54 21 5.41529e-30
55 21 6.13799e-30
56 21 9.19856e-30
57 21 -2.12396e-30
58 21 -6.78019e-29
59 21 -1.30611e-28
60 21 1.16409e-30
61 21 1.34262e-29
62 21 -1.10826e-28
63 21 6.169e-30
64 21 -2.28755e-29
65 21 -1.9125e-29
66 21 -5.58097e-29
67 21 4.92141e-29
68 21 7.7428e-29
69 21 1.65194e-29
70 21 4.18739e-29
71 21 -3.73788e-29
72 21 -4.49775e-29
73 21 1.88574e-29
74 21 1.21241e-29
75 21 -3.16847e-29
76 21 -1.52652e-29
77 21 -1.38727e-29
78 21 -2.6546e-29
79 21 6.07914e-29
80 21 -1.46587e-29
81 21 1.39378e-29
82 21 1.80796e-29
83 21 -3.87288e-29
84 21 -8.921e-29
85 21 9.96841e-30
86 21 4.46272e-29
87 21 3.52908e-29
88 21 -2.47715e-29
89 21 2.21905e-29
90 21 -3.93224e-29
91 21 -3.07151e-29
92 21 1.15537e-28
93 21 5.40923e-29
94 21 4.60322e-29
95 21 3.968e-30
96 21 1.11458e-28
97 21 -1.5738e-29
98 21 6.24674e-30
99 21 -1.19399e-28
100 21 -9.085e-29
101 21 -6.40972e-30
102 21 4.54379e-29
103 21 -8.1088e-29
104 21 -5.63345
105 21 -5.63345
106 21 -5.63345
107 21 -5.63345
108 21 -5.63345
109 21 -5.63345
110 21 -5.63345
111 21 -5.63345
112 21 -5.63345
113 21 -5.63345
114 21 -5.63345
115 21 -5.63345
116 21 -5.63345
117 21 -5.63345
118 21 -5.63345
119 21 -5.63345
0 22 -5.63345
1 22 -5.63345
2 22 -5.63345
3 22 -5.63345
4 22 -5.63345
5 22 -5.63345
6 22 -5.63345
7 22 -5.63345
8 22 -5.63345
9 22 -5.63345
10 22 -5.63345
11 22 -5.63345
12 22 -5.63345
13 22 -5.63345
14 22 -5.63345
15 22 -5.63345
16 22 -5.63345
17 22 -5.63345
18 22 -5.63345
19 22 -5.63345
20 22 -5.63345
21 22 -5.63345
22 22 -5.63345
23 22 -5.63345
24 22 -5.63345
25 22 -5.15828e-30
26 22 -0.0514164
27 22 0.205413
28 22 0.395741
29 22 2.51137e-29
30 22 3.36288
31 22 3.65415
32 22 4.10307
33 22 4.69155
34 22 4.28911
35 22 4.2885
36 22 4.29326
37 22 4.07026
38 22 7.13636e-30
39 22 4.14413
40 22 4.42062
41 22 4.32466
42 22 -5.05682e-29
43 22 0.420574
44 22 0.18458
45 22 0.429598
46 22 3.93654e-29
47 22 -1.1079e-29
48 22 0.936368
49 22 0.862611
50 22 6.71255e-29
51 22 -5.8093e-29
52 22 -5.63345
53 22 -5.63345
54 22 4.11466e-29
55 22 -4.88377e-30
56 22 -5.63345
57 22 -5.63345
58 22 -5.63345
59 22 2.89275e-29
60 22 -3.48567e-29
61 22 -5.63345
62 22 -5.63345
63 22 -6.74056e-30
64 22 3.98723e-29
65 22 -5.63345
66 22 -5.63345
67 22 1.06008e-29
68 22 -6.75693e-29
69 22 -5.63345
70 22 -5.63345
71 22 -5.63345
72 22 -2.09698e-29
73 22 1.6482
74 22 3.70814
75 22 5.16591
76 22 1.52497e-30
77 22 -3.0017e-29
78 22 -5.59279
79 22 -5.55564
80 22 -2.16167e-29
81 22 3.32741e-29
82 22 -5.63345
83 22 -5.63345
84 22 -5.63345
85 22 -2.53888e-29
86 22 -5.63345
87 22 -5.63345
88 22 -5.63345
89 22 5.50381e-29
90 22 -5.63345
91 22 -5.63345
92 22 -5.63345
93 22 4.88384e-29
94 22 1.00671e-30
95 22 -4.42899
96 22 -4.86373
97 22 -5.13854
98 22 2.35685e-29
99 22 -1.34656
100 22 -1.78282
101 22 -1.77355
102 22 7.41452e-30
103 22 -5.47317
104 22 -5.63345
105 22 -5.63345
106 22 -5.63345
107 22 -5.63345
108 22 -5.63345
109 22 -5.63345
110 22 -5.63345
111 22 -5.63345
112 22 -5.63345
113 22 -5.63345
114 22 -5.63345
115 22 -5.63345
116 22 -5.63345
117 22 -5.63345
118 22 -5.63345
119 22 -5.63345
0 23 -5.63345
1 23 -5.63345
2 23 -5.63345
3 23 -5.63345
4 23 -5.63345
5 23 -5.63345
6 23 -5.63345
7 23 -5.63345
8 23 -5.63345
9 23 -5.63345
10 23 -5.63345
11 23 -5.63345
12 23 -5.63345
13 23 -5.63345
14 23 -5.63345
15 23 -5.63345
16 23 -5.63345
17 23 -5.63345
18 23 -5.63345
19 23 -5.63345
20 23 -5.63345
21 23 -5.63345
22 23 -5.63345
23 23 -5.63345
24 23 -1.28525e-29
25 23 1.52226e-29
26 23 5.22993e-30
27 23 -2.63249e-31
28 23 5.90777e-31
29 23 -1.39068e-29
30 23 1.4191e-29
31 23 -2.22866e-30
32 23 -2.00516e-29
33 23 3.17896e-29
34 23 2.14789e-29
35 23 -4.14696e-29
36 23 -5.8128e-31
37 23 7.93658e-30
38 23 1.14527e-29
39 23 -2.8588e-29
40 23 2.0562e-29
41 23 -2.65597e-29
42 23 -2.55335e-29
43 23 2.86783e-30
44 23 -3.1403e-29
45 23 1.40348e-29
46 23 7.70717e-30
47 23 1.37051e-29
48 23 -2.22874e-30
49 23 -1.37787e-29
50 23 3.10768e-29
51 23 -2.65025e-29
52 23 -1.38404e-29
53 23 2.31073e-29
54 23 -3.06728e-29
55 23 6.72644e-30
56 23 1.93747e-29
57 23 -1.90683e-29
58 23 -1.33346e-29
59 23 6.58859e-31
60 23 -2.82568e-30
61 23 6.3619e-30
62 23 -9.18913e-30
63 23 -2.15009e-29
64 23 1.5935e-29
65 23 4.58999e-29
66 23 8.91938e-30
67 23 7.67505e-30
68 23 -3.95186e-29
69 23 1.24379e-29
70 23 6.26728e-30
71 23 -2.26016e-29
72 23 -1.89754e-29
73 23 8.47533e-30
74 23 3.20901e-29
75 23 -4.11639e-29
76 23 -1.09694e-29
77 23 -1.04596e-29
78 23 -3.77633e-29
79 23 7.90889e-30
80 23 4.5757e-29
81 23 -5.29203e-30
82 23 -2.96636e-29
83 23 -2.21441e-29
84 23 -1.55896e-29
85 23 -5.19472e-29
86 23 2.40158e-29
87 23 -1.36869e-29
88 23 2.29246e-29
89 23 -5.91444e-30
90 23 -2.58336e-30
91 23 -1.97975e-30
92 23 5.87881e-30
93 23 -1.66679e-29
94 23 -8.12249e-30
95 23 -7.56386e-30
96 23 3.90862e-29
97 23 5.93014e-30
98 23 -2.45635e-29
99 23 2.02081e-29
100 23 4.99755e-30
101 23 3.36091e-30
102 23 -3.74564e-29
103 23 -2.88028e-29
104 23 -5.63345
105 23 -5.63345
106 23 -5.63345
107 23 -5.63345
108 23 -5.63345
109 23 -5.63345
110 23 -5.63345
111 23 -5.63345
112 23 -5.63345
113 23 -5.63345
114 23 -5.63345
115 23 -5.63345
116 23 -5.63345
117 23 -5.63345
118 23 -5.63345
119 23 -5.63345
0 24 -5.63345
1 24 -5.63345
2 24 -5.63345
3 24 -5.63345
4 24 -5.63345
5 24 -5.63345
6 24 -5.63345
7 24 -5.63345
8 24 -5.63345
9 24 -5.63345
10 24 -5.63345
11 24 -5.63345
12 24 -5.63345
13 24 -5.63345
14 24 -5.63345
15 24 -5.63345
16 24 -5.63345
17 24 -5.63345
18 24 -5.63345
19 24 -5.63345
20 24 -5.63345
21 24 -5.63345
22 24 -5.63345
23 24 -5.63345
24 24 -6.19548e-30
25 24 2.86089e-29
26 24 2.43198e-29
27 24 1.90306e-29
28 24 -1.46977e-29
29 24 -4.35444e-30
30 24 -1.57721e-29
31 24 4.53085e-30
32 24 4.73133e-30
33 24 2.9559e-29
34 24 -1.75075e-30
35 24 -5.26409e-30
36 24 -3.30696e-32
37 24 -4.25329e-30
38 24 4.0791e-29
39 24 -1.34422e-29
40 24 1.4158e-30
41 24 2.8101e-30
42 24 -5.63345
43 24 -5.63345
44 24 -2.8334e-29
45 24 -1.51174e-29
46 24 -5.63345
47 24 -5.63345
48 24 1.9593e-30
49 24 1.78239e-29
50 24 -3.25956
51 24 -2.98519
52 24 -2.31338
53 24 -1.03912e-30
54 24 -0.042021
55 24 0.208128
56 24 0.410178
57 24 6.60695e-30
58 24 3.41766
59 24 3.71044
60 24 4.17728
61 24 4.89409
62 24 4.35441
63 24 4.36465
64 24 4.38236
65 24 4.17141
66 24 1.13093e-29
67 24 4.10016
68 24 4.38123
69 24 4.22764
70 24 2.44168e-29
71 24 0.580427
72 24 0.382598
73 24 0.6102
74 24 1.23095e-29
75 24 1.05874e-29
76 24 0.889725
77 24 0.799971
78 24 -8.08197e-30
79 24 -1.31717e-29
80 24 -5.63345
81 24 -5.63345
82 24 7.98271e-30
83 24 4.73371e-30
84 24 -5.63345
85 24 -5.63345
86 24 -5.63345
87 24 -2.57015e-29
88 24 2.66748e-29
89 24 -5.63345
90 24 -5.63345
91 24 -1.6164e-29
92 24 1.8237e-29
93 24 -5.63345
94 24 -5.63345
95 24 4.97131e-30
96 24 -1.78312e-29
97 24 -5.63345
98 24 -5.63345
99 24 -5.63345
100 24 3.65628e-29
101 24 7.07505
102 24 6.56916
103 24 6.70532
104 24 -5.63345
105 24 -5.63345
106 24 -5.63345
107 24 -5.63345
108 24 -5.63345
109 24 -5.63345
110 24 -5.63345
111 24 -5.63345
112 24 -5.63345
113 24 -5.63345
114 24 -5.63345
115 24 -5.63345
116 24 -5.63345
117 24 -5.63345
118 24 -5.63345
119 24 -5.63345
0 25 -5.63345
1 25 -5.63345
2 25 -5.63345
3 25 -5.63345
4 25 -5.63345
5 25 -5.63345
6 25 -5.63345
7 25 -5.63345
8 25 -5.63345
9 25 -5.63345
10 25 -5.63345
11 25 -5.63345
12 25 -5.63345
13 25 -5.63345
14 25 -5.63345
15 25 -5.63345
16 25 -5.63345
17 25 -5.63345
18 25 -5.63345
19 25 -5.63345
20 25 -5.63345
21 25 -5.63345
22 25 -5.63345
23 25 -5.63345
24 25 -5.63345
25 25 -2.38661e-30
26 25 -5.63345
27 25 -5.63345
28 25 -5.63345
29 25 7.55712e-30
30 25 9.91739e-30
31 25 -5.63345
32 25 -5.63345
33 25 -5.63345
34 25 -9.69338e-30
35 25 -2.01103
36 25 -2.14607
37 25 -2.18758
38 25 -1.29938e-29
39 25 -4.96321
40 25 -5.02914
41 25 -4.95585
42 25 9.02676e-30
43 25 -5.53903
44 25 -5.17213
45 25 -5.14925
46 25 -3.24976e-30
47 25 5.89229e-30
48 25 -4.22296
49 25 -4.19745
50 25 -4.73374
51 25 -1.05471e-29
52 25 -1.55362e-29
53 25 -6.50104e-30
54 25 -3.45225e-30
55 25 -5.11547e-31
56 25 6.68464e-30
57 25 8.56356e-30
58 25 -1.72267e-29
59 25 4.71883e-30
60 25 -3.85727e-30
61 25 3.78941e-30
62 25 1.10361e-29
63 25 -5.6909e-30
64 25 -1.58749e-30
65 25 -7.81787e-30
66 25 9.24158e-30
67 25 -8.87482e-30
68 25 -2.1662e-30
69 25 -2.248e-29
70 25 1.3525e-29
71 25 5.38444e-30
72 25 -1.02588e-29
73 25 -1.66859e-29
74 25 5.6429e-30
75 25 1.6467e-29
76 25 -3.7494e-30
77 25 -7.34087e-32
78 25 1.15387e-29
79 25 -4.90265e-30
80 25 1.61594e-29
81 25 -3.15677e-30
82 25 2.21005e-29
83 25 -4.55763e-30
84 25 -6.2256e-30
85 25 9.8801e-30
86 25 -1.25987e-29
87 25 -5.42595e-30
88 25 2.49718e-30
89 25 3.30304e-30
90 25 -2.53397e-29
91 25 1.20194e-29
92 25 -8.91793e-30
93 25 -2.75359e-30
94 25 1.21925e-29
95 25 4.79836e-30
96 25 -5.72631e-30
97 25 -2.38516e-30
98 25 1.08382e-30
99 25 -1.74115e-29
100 25 2.33419e-29
101 25 2.74003e-32
102 25 5.68114e-30
103 25 -5.63345
104 25 -5.63345
105 25 -5.63345
106 25 -5.63345
107 25 -5.63345
108 25 -5.63345
109 25 -5.63345
110 25 -5.63345
111 25 -5.63345
112 25 -5.63345
113 25 -5.63345
114 25 -5.63345
115 25 -5.63345
116 25 -5.63345
117 25 -5.63345
118 25 -5.63345
119 25 -5.63345
0 26 -5.63345
1 26 -5.63345
2 26 -5.63345
3 26 -5.63345
4 26 -5.63345
5 26 -5.63345
6 26 -5.63345
7 26 -5.63345
8 26 -5.63345
9 26 -5.63345
10 26 -5.63345
11 26 -5.63345
12 26 -5.63345
13 26 -5.63345
14 26 -5.63345
15 26 -5.63345
16 26 -5.63345
17 26 -5.63345
18 26 -5.63345
19 26 -5.63345
20 26 -5.63345
21 26 -5.63345
22 26 -5.63345
23 26 -5.63345
24 26 6.69642e-31
25 26 -8.55359e-30
26 26 -1.94688e-30
27 26 1.25504e-30
28 26 8.9956e-30
29 26 -1.90491e-29
30 26 4.02466e-30
31 26 -1.27518e-29
32 26 3.07633e-30
33 26 -1.11777e-30
34 26 -6.5064e-30
35 26 1.00104e-29
36 26 -6.68121e-30
37 26 9.94811e-31
38 26 -5.57425e-30
39 26 5.71699e-30
40 26 9.95777e-30
41 26 7.60992e-30
42 26 -5.8237e-30
43 26 6.49433e-30
44 26 2.75831e-30
